4.80007e+00 3.32503e+01 1.69675e+01
1.19988e+01 3.74066e+01 1.69675e+01
1.19988e+01 2.90942e+01 1.69675e+01
9.59920e+00 3.32503e+01 1.01809e+01
9.59920e+00 3.32503e+01 1.52710e+01
1.67979e+01 3.74066e+01 1.52710e+01
1.67979e+01 2.90942e+01 1.52710e+01
1.43983e+01 3.32503e+01 8.48430e+00
9.59920e+00 2.49380e+01 1.01809e+01
1.67979e+01 2.90942e+01 1.01809e+01
1.67979e+01 2.07819e+01 1.01809e+01
1.43983e+01 2.49380e+01 3.39421e+00
1.43983e+01 2.49380e+01 8.48430e+00
2.15969e+01 2.90942e+01 8.48430e+00
2.15969e+01 2.07819e+01 8.48430e+00
1.91973e+01 2.49380e+01 1.69765e+00
1.43983e+01 1.66257e+01 3.39421e+00
2.15969e+01 2.07819e+01 3.39421e+00
2.15969e+01 1.24695e+01 3.39421e+00
1.91973e+01 1.66257e+01 1.69765e+00
2.63961e+01 2.07819e+01 1.69765e+00
2.63961e+01 1.24695e+01 1.69765e+00
1.19988e+01 4.57189e+01 1.69675e+01
1.67979e+01 4.57189e+01 1.52710e+01
9.59920e+00 4.15626e+01 1.01809e+01
1.67979e+01 4.57189e+01 1.01809e+01
1.67979e+01 3.74066e+01 1.01809e+01
1.43983e+01 4.15626e+01 3.39421e+00
1.43983e+01 4.15626e+01 8.48430e+00
2.15969e+01 4.57189e+01 8.48430e+00
2.15969e+01 3.74066e+01 8.48430e+00
1.91973e+01 4.15626e+01 1.69765e+00
1.43983e+01 3.32503e+01 3.39421e+00
2.15969e+01 3.74066e+01 3.39421e+00
2.15969e+01 2.90942e+01 3.39421e+00
1.91973e+01 3.32503e+01 1.69765e+00
2.63961e+01 3.74066e+01 1.69765e+00
2.63961e+01 2.90942e+01 1.69765e+00
2.15969e+01 4.57189e+01 3.39421e+00
2.63961e+01 4.57189e+01 1.69765e+00
2.40052e+00 1.24695e+01 5.59909e+01
2.40052e+00 4.15717e+00 5.59909e+01
9.65004e-04 8.31334e+00 4.92043e+01
2.40052e+00 4.15717e+00 5.09009e+01
9.60884e-04 1.00146e-03 4.41141e+01
9.65004e-04 1.00146e-03 4.92043e+01
7.19965e+00 4.15717e+00 4.92043e+01
4.80007e+00 1.00146e-03 4.24175e+01
2.40052e+00 2.90942e+01 5.59909e+01
2.40052e+00 2.07819e+01 5.59909e+01
9.65004e-04 2.49380e+01 4.92043e+01
2.40052e+00 2.07819e+01 5.09009e+01
2.40052e+00 1.24695e+01 5.09009e+01
9.60884e-04 1.66257e+01 4.41141e+01
9.65004e-04 1.66257e+01 4.92043e+01
7.19965e+00 2.07819e+01 4.92043e+01
7.19965e+00 1.24695e+01 4.92043e+01
4.80007e+00 1.66257e+01 4.24175e+01
9.60884e-04 8.31334e+00 4.41141e+01
7.19963e+00 1.24695e+01 4.41141e+01
7.19963e+00 4.15717e+00 4.41141e+01
4.80007e+00 8.31334e+00 3.73276e+01
4.80007e+00 8.31334e+00 4.24175e+01
1.19988e+01 1.24695e+01 4.24175e+01
1.19988e+01 4.15717e+00 4.24175e+01
9.59920e+00 8.31334e+00 3.56310e+01
4.80007e+00 1.00146e-03 3.73276e+01
1.19988e+01 4.15717e+00 3.73276e+01
9.59920e+00 1.00146e-03 3.05408e+01
9.59920e+00 1.00146e-03 3.56310e+01
1.67979e+01 4.15717e+00 3.56310e+01
1.43983e+01 1.00146e-03 2.88442e+01
2.40052e+00 4.57189e+01 5.59909e+01
2.40052e+00 3.74066e+01 5.59909e+01
9.65004e-04 4.15626e+01 4.92043e+01
2.40052e+00 3.74066e+01 5.09009e+01
2.40052e+00 2.90942e+01 5.09009e+01
9.60884e-04 3.32503e+01 4.41141e+01
9.65004e-04 3.32503e+01 4.92043e+01
7.19965e+00 3.74066e+01 4.92043e+01
7.19965e+00 2.90942e+01 4.92043e+01
4.80007e+00 3.32503e+01 4.24175e+01
9.60884e-04 2.49380e+01 4.41141e+01
7.19963e+00 2.90942e+01 4.41141e+01
7.19963e+00 2.07819e+01 4.41141e+01
4.80007e+00 2.49380e+01 3.73276e+01
4.80007e+00 2.49380e+01 4.24175e+01
1.19988e+01 2.90942e+01 4.24175e+01
1.19988e+01 2.07819e+01 4.24175e+01
9.59920e+00 2.49380e+01 3.56310e+01
4.80007e+00 1.66257e+01 3.73276e+01
1.19988e+01 2.07819e+01 3.73276e+01
1.19988e+01 1.24695e+01 3.73276e+01
9.59920e+00 1.66257e+01 3.05408e+01
9.59920e+00 1.66257e+01 3.56310e+01
1.67979e+01 2.07819e+01 3.56310e+01
1.67979e+01 1.24695e+01 3.56310e+01
1.43983e+01 1.66257e+01 2.88442e+01
9.59920e+00 8.31334e+00 3.05408e+01
1.67979e+01 1.24695e+01 3.05408e+01
1.67979e+01 4.15717e+00 3.05408e+01
1.43983e+01 8.31334e+00 2.37542e+01
1.43983e+01 8.31334e+00 2.88442e+01
2.15969e+01 1.24695e+01 2.88442e+01
2.15969e+01 4.15717e+00 2.88442e+01
1.91973e+01 8.31334e+00 2.20576e+01
1.43983e+01 1.00146e-03 2.37542e+01
2.15969e+01 4.15717e+00 2.37542e+01
1.91973e+01 1.00146e-03 1.69675e+01
1.91973e+01 1.00146e-03 2.20576e+01
2.63961e+01 4.15717e+00 2.20576e+01
2.39965e+01 1.00146e-03 1.52710e+01
2.40052e+00 4.57189e+01 5.09009e+01
7.19965e+00 4.57189e+01 4.92043e+01
9.60884e-04 4.15626e+01 4.41141e+01
7.19963e+00 4.57189e+01 4.41141e+01
7.19963e+00 3.74066e+01 4.41141e+01
4.80007e+00 4.15626e+01 3.73276e+01
4.80007e+00 4.15626e+01 4.24175e+01
1.19988e+01 4.57189e+01 4.24175e+01
1.19988e+01 3.74066e+01 4.24175e+01
9.59920e+00 4.15626e+01 3.56310e+01
4.80007e+00 3.32503e+01 3.73276e+01
1.19988e+01 3.74066e+01 3.73276e+01
1.19988e+01 2.90942e+01 3.73276e+01
9.59920e+00 3.32503e+01 3.05408e+01
9.59920e+00 3.32503e+01 3.56310e+01
1.67979e+01 3.74066e+01 3.56310e+01
1.67979e+01 2.90942e+01 3.56310e+01
1.43983e+01 3.32503e+01 2.88442e+01
9.59920e+00 2.49380e+01 3.05408e+01
1.67979e+01 2.90942e+01 3.05408e+01
1.67979e+01 2.07819e+01 3.05408e+01
1.43983e+01 2.49380e+01 2.37542e+01
1.43983e+01 2.49380e+01 2.88442e+01
2.15969e+01 2.90942e+01 2.88442e+01
2.15969e+01 2.07819e+01 2.88442e+01
1.91973e+01 2.49380e+01 2.20576e+01
1.43983e+01 1.66257e+01 2.37542e+01
2.15969e+01 2.07819e+01 2.37542e+01
2.15969e+01 1.24695e+01 2.37542e+01
1.91973e+01 1.66257e+01 1.69675e+01
1.91973e+01 1.66257e+01 2.20576e+01
2.63961e+01 2.07819e+01 2.20576e+01
2.63961e+01 1.24695e+01 2.20576e+01
2.39965e+01 1.66257e+01 1.52710e+01
1.91973e+01 8.31334e+00 1.69675e+01
2.63961e+01 1.24695e+01 1.69675e+01
2.63961e+01 4.15717e+00 1.69675e+01
2.39965e+01 8.31334e+00 1.01809e+01
2.39965e+01 8.31334e+00 1.52710e+01
3.11952e+01 1.24695e+01 1.52710e+01
3.11952e+01 4.15717e+00 1.52710e+01
2.87956e+01 8.31334e+00 8.48430e+00
2.39965e+01 1.00146e-03 1.01809e+01
3.11952e+01 4.15717e+00 1.01809e+01
2.87956e+01 1.00146e-03 3.39421e+00
2.87956e+01 1.00146e-03 8.48430e+00
3.59944e+01 4.15717e+00 8.48430e+00
3.35948e+01 1.00146e-03 1.69765e+00
1.19988e+01 4.57189e+01 3.73276e+01
1.67979e+01 4.57189e+01 3.56310e+01
9.59920e+00 4.15626e+01 3.05408e+01
1.67979e+01 4.57189e+01 3.05408e+01
1.67979e+01 3.74066e+01 3.05408e+01
1.43983e+01 4.15626e+01 2.37542e+01
1.43983e+01 4.15626e+01 2.88442e+01
2.15969e+01 4.57189e+01 2.88442e+01
2.15969e+01 3.74066e+01 2.88442e+01
1.91973e+01 4.15626e+01 2.20576e+01
1.43983e+01 3.32503e+01 2.37542e+01
2.15969e+01 3.74066e+01 2.37542e+01
2.15969e+01 2.90942e+01 2.37542e+01
1.91973e+01 3.32503e+01 1.69675e+01
1.91973e+01 3.32503e+01 2.20576e+01
2.63961e+01 3.74066e+01 2.20576e+01
2.63961e+01 2.90942e+01 2.20576e+01
2.39965e+01 3.32503e+01 1.52710e+01
1.91973e+01 2.49380e+01 1.69675e+01
2.63961e+01 2.90942e+01 1.69675e+01
2.63961e+01 2.07819e+01 1.69675e+01
2.39965e+01 2.49380e+01 1.01809e+01
2.39965e+01 2.49380e+01 1.52710e+01
3.11952e+01 2.90942e+01 1.52710e+01
3.11952e+01 2.07819e+01 1.52710e+01
2.87956e+01 2.49380e+01 8.48430e+00
2.39965e+01 1.66257e+01 1.01809e+01
3.11952e+01 2.07819e+01 1.01809e+01
3.11952e+01 1.24695e+01 1.01809e+01
2.87956e+01 1.66257e+01 3.39421e+00
2.87956e+01 1.66257e+01 8.48430e+00
3.59944e+01 2.07819e+01 8.48430e+00
3.59944e+01 1.24695e+01 8.48430e+00
3.35948e+01 1.66257e+01 1.69765e+00
2.87956e+01 8.31334e+00 3.39421e+00
3.59944e+01 1.24695e+01 3.39421e+00
3.59944e+01 4.15717e+00 3.39421e+00
3.35948e+01 8.31334e+00 1.69765e+00
4.07935e+01 1.24695e+01 1.69765e+00
4.07935e+01 4.15717e+00 1.69765e+00
2.15969e+01 4.57189e+01 2.37542e+01
2.63961e+01 4.57189e+01 2.20576e+01
1.91973e+01 4.15626e+01 1.69675e+01
2.63961e+01 4.57189e+01 1.69675e+01
2.63961e+01 3.74066e+01 1.69675e+01
2.39965e+01 4.15626e+01 1.01809e+01
2.39965e+01 4.15626e+01 1.52710e+01
3.11952e+01 4.57189e+01 1.52710e+01
3.11952e+01 3.74066e+01 1.52710e+01
2.87956e+01 4.15626e+01 8.48430e+00
2.39965e+01 3.32503e+01 1.01809e+01
3.11952e+01 3.74066e+01 1.01809e+01
3.11952e+01 2.90942e+01 1.01809e+01
2.87956e+01 3.32503e+01 3.39421e+00
2.87956e+01 3.32503e+01 8.48430e+00
3.59944e+01 3.74066e+01 8.48430e+00
3.59944e+01 2.90942e+01 8.48430e+00
3.35948e+01 3.32503e+01 1.69765e+00
2.87956e+01 2.49380e+01 3.39421e+00
3.59944e+01 2.90942e+01 3.39421e+00
3.59944e+01 2.07819e+01 3.39421e+00
3.35948e+01 2.49380e+01 1.69765e+00
4.07935e+01 2.90942e+01 1.69765e+00
4.07935e+01 2.07819e+01 1.69765e+00
3.11952e+01 4.57189e+01 1.01809e+01
3.59944e+01 4.57189e+01 8.48430e+00
2.87956e+01 4.15626e+01 3.39421e+00
3.59944e+01 4.57189e+01 3.39421e+00
3.59944e+01 3.74066e+01 3.39421e+00
3.35948e+01 4.15626e+01 1.69765e+00
4.07935e+01 4.57189e+01 1.69765e+00
4.07935e+01 3.74066e+01 1.69765e+00
2.40052e+00 1.24695e+01 7.63508e+01
2.40052e+00 4.15717e+00 7.63508e+01
9.65004e-04 8.31334e+00 6.95642e+01
2.40052e+00 4.15717e+00 7.12608e+01
9.60884e-04 1.00146e-03 6.44741e+01
9.65004e-04 1.00146e-03 6.95642e+01
7.19965e+00 4.15717e+00 6.95642e+01
4.80007e+00 1.00146e-03 6.27776e+01
2.40052e+00 2.90942e+01 7.63508e+01
2.40052e+00 2.07819e+01 7.63508e+01
9.65004e-04 2.49380e+01 6.95642e+01
2.40052e+00 2.07819e+01 7.12608e+01
2.40052e+00 1.24695e+01 7.12608e+01
9.60884e-04 1.66257e+01 6.44741e+01
9.65004e-04 1.66257e+01 6.95642e+01
7.19965e+00 2.07819e+01 6.95642e+01
7.19965e+00 1.24695e+01 6.95642e+01
4.80007e+00 1.66257e+01 6.27776e+01
9.60884e-04 8.31334e+00 6.44741e+01
7.19963e+00 1.24695e+01 6.44741e+01
7.19963e+00 4.15717e+00 6.44741e+01
4.80007e+00 8.31334e+00 5.76875e+01
4.80007e+00 8.31334e+00 6.27776e+01
1.19988e+01 1.24695e+01 6.27776e+01
1.19988e+01 4.15717e+00 6.27776e+01
9.59920e+00 8.31334e+00 5.59909e+01
4.80007e+00 1.00146e-03 5.76875e+01
1.19988e+01 4.15717e+00 5.76875e+01
9.59920e+00 1.00146e-03 5.09009e+01
9.59920e+00 1.00146e-03 5.59909e+01
1.67979e+01 4.15717e+00 5.59909e+01
1.43983e+01 1.00146e-03 4.92043e+01
2.40052e+00 4.57189e+01 7.63508e+01
2.40052e+00 3.74066e+01 7.63508e+01
9.65004e-04 4.15626e+01 6.95642e+01
2.40052e+00 3.74066e+01 7.12608e+01
2.40052e+00 2.90942e+01 7.12608e+01
9.60884e-04 3.32503e+01 6.44741e+01
9.65004e-04 3.32503e+01 6.95642e+01
7.19965e+00 3.74066e+01 6.95642e+01
7.19965e+00 2.90942e+01 6.95642e+01
4.80007e+00 3.32503e+01 6.27776e+01
9.60884e-04 2.49380e+01 6.44741e+01
7.19963e+00 2.90942e+01 6.44741e+01
7.19963e+00 2.07819e+01 6.44741e+01
4.80007e+00 2.49380e+01 5.76875e+01
4.80007e+00 2.49380e+01 6.27776e+01
1.19988e+01 2.90942e+01 6.27776e+01
1.19988e+01 2.07819e+01 6.27776e+01
9.59920e+00 2.49380e+01 5.59909e+01
4.80007e+00 1.66257e+01 5.76875e+01
1.19988e+01 2.07819e+01 5.76875e+01
1.19988e+01 1.24695e+01 5.76875e+01
9.59920e+00 1.66257e+01 5.09009e+01
9.59920e+00 1.66257e+01 5.59909e+01
1.67979e+01 2.07819e+01 5.59909e+01
1.67979e+01 1.24695e+01 5.59909e+01
1.43983e+01 1.66257e+01 4.92043e+01
9.59920e+00 8.31334e+00 5.09009e+01
1.67979e+01 1.24695e+01 5.09009e+01
1.67979e+01 4.15717e+00 5.09009e+01
1.43983e+01 8.31334e+00 4.41141e+01
1.43983e+01 8.31334e+00 4.92043e+01
2.15969e+01 1.24695e+01 4.92043e+01
2.15969e+01 4.15717e+00 4.92043e+01
1.91973e+01 8.31334e+00 4.24175e+01
1.43983e+01 1.00146e-03 4.41141e+01
2.15969e+01 4.15717e+00 4.41141e+01
1.91973e+01 1.00146e-03 3.73276e+01
1.91973e+01 1.00146e-03 4.24175e+01
2.63961e+01 4.15717e+00 4.24175e+01
2.39965e+01 1.00146e-03 3.56310e+01
2.40052e+00 4.57189e+01 7.12608e+01
7.19965e+00 4.57189e+01 6.95642e+01
9.60884e-04 4.15626e+01 6.44741e+01
7.19963e+00 4.57189e+01 6.44741e+01
7.19963e+00 3.74066e+01 6.44741e+01
4.80007e+00 4.15626e+01 5.76875e+01
4.80007e+00 4.15626e+01 6.27776e+01
1.19988e+01 4.57189e+01 6.27776e+01
1.19988e+01 3.74066e+01 6.27776e+01
9.59920e+00 4.15626e+01 5.59909e+01
4.80007e+00 3.32503e+01 5.76875e+01
1.19988e+01 3.74066e+01 5.76875e+01
1.19988e+01 2.90942e+01 5.76875e+01
9.59920e+00 3.32503e+01 5.09009e+01
9.59920e+00 3.32503e+01 5.59909e+01
1.67979e+01 3.74066e+01 5.59909e+01
1.67979e+01 2.90942e+01 5.59909e+01
1.43983e+01 3.32503e+01 4.92043e+01
9.59920e+00 2.49380e+01 5.09009e+01
1.67979e+01 2.90942e+01 5.09009e+01
1.67979e+01 2.07819e+01 5.09009e+01
1.43983e+01 2.49380e+01 4.41141e+01
1.43983e+01 2.49380e+01 4.92043e+01
2.15969e+01 2.90942e+01 4.92043e+01
2.15969e+01 2.07819e+01 4.92043e+01
1.91973e+01 2.49380e+01 4.24175e+01
1.43983e+01 1.66257e+01 4.41141e+01
2.15969e+01 2.07819e+01 4.41141e+01
2.15969e+01 1.24695e+01 4.41141e+01
1.91973e+01 1.66257e+01 3.73276e+01
1.91973e+01 1.66257e+01 4.24175e+01
2.63961e+01 2.07819e+01 4.24175e+01
2.63961e+01 1.24695e+01 4.24175e+01
2.39965e+01 1.66257e+01 3.56310e+01
1.91973e+01 8.31334e+00 3.73276e+01
2.63961e+01 1.24695e+01 3.73276e+01
2.63961e+01 4.15717e+00 3.73276e+01
2.39965e+01 8.31334e+00 3.05408e+01
2.39965e+01 8.31334e+00 3.56310e+01
3.11952e+01 1.24695e+01 3.56310e+01
3.11952e+01 4.15717e+00 3.56310e+01
2.87956e+01 8.31334e+00 2.88442e+01
2.39965e+01 1.00146e-03 3.05408e+01
3.11952e+01 4.15717e+00 3.05408e+01
2.87956e+01 1.00146e-03 2.37542e+01
2.87956e+01 1.00146e-03 2.88442e+01
3.59944e+01 4.15717e+00 2.88442e+01
3.35948e+01 1.00146e-03 2.20576e+01
1.19988e+01 4.57189e+01 5.76875e+01
1.67979e+01 4.57189e+01 5.59909e+01
9.59920e+00 4.15626e+01 5.09009e+01
1.67979e+01 4.57189e+01 5.09009e+01
1.67979e+01 3.74066e+01 5.09009e+01
1.43983e+01 4.15626e+01 4.41141e+01
1.43983e+01 4.15626e+01 4.92043e+01
2.15969e+01 4.57189e+01 4.92043e+01
2.15969e+01 3.74066e+01 4.92043e+01
1.91973e+01 4.15626e+01 4.24175e+01
1.43983e+01 3.32503e+01 4.41141e+01
2.15969e+01 3.74066e+01 4.41141e+01
2.15969e+01 2.90942e+01 4.41141e+01
1.91973e+01 3.32503e+01 3.73276e+01
1.91973e+01 3.32503e+01 4.24175e+01
2.63961e+01 3.74066e+01 4.24175e+01
2.63961e+01 2.90942e+01 4.24175e+01
2.39965e+01 3.32503e+01 3.56310e+01
1.91973e+01 2.49380e+01 3.73276e+01
2.63961e+01 2.90942e+01 3.73276e+01
2.63961e+01 2.07819e+01 3.73276e+01
2.39965e+01 2.49380e+01 3.05408e+01
2.39965e+01 2.49380e+01 3.56310e+01
3.11952e+01 2.90942e+01 3.56310e+01
3.11952e+01 2.07819e+01 3.56310e+01
2.87956e+01 2.49380e+01 2.88442e+01
2.39965e+01 1.66257e+01 3.05408e+01
3.11952e+01 2.07819e+01 3.05408e+01
3.11952e+01 1.24695e+01 3.05408e+01
2.87956e+01 1.66257e+01 2.37542e+01
2.87956e+01 1.66257e+01 2.88442e+01
3.59944e+01 2.07819e+01 2.88442e+01
3.59944e+01 1.24695e+01 2.88442e+01
3.35948e+01 1.66257e+01 2.20576e+01
2.87956e+01 8.31334e+00 2.37542e+01
3.59944e+01 1.24695e+01 2.37542e+01
3.59944e+01 4.15717e+00 2.37542e+01
3.35948e+01 8.31334e+00 1.69675e+01
3.35948e+01 8.31334e+00 2.20576e+01
4.07935e+01 1.24695e+01 2.20576e+01
4.07935e+01 4.15717e+00 2.20576e+01
3.83939e+01 8.31334e+00 1.52710e+01
3.35948e+01 1.00146e-03 1.69675e+01
4.07935e+01 4.15717e+00 1.69675e+01
3.83939e+01 1.00146e-03 1.01809e+01
3.83939e+01 1.00146e-03 1.52710e+01
4.55927e+01 4.15717e+00 1.52710e+01
4.31931e+01 1.00146e-03 8.48430e+00
2.15969e+01 4.57189e+01 4.41141e+01
2.63961e+01 4.57189e+01 4.24175e+01
1.91973e+01 4.15626e+01 3.73276e+01
2.63961e+01 4.57189e+01 3.73276e+01
2.63961e+01 3.74066e+01 3.73276e+01
2.39965e+01 4.15626e+01 3.05408e+01
2.39965e+01 4.15626e+01 3.56310e+01
3.11952e+01 4.57189e+01 3.56310e+01
3.11952e+01 3.74066e+01 3.56310e+01
2.87956e+01 4.15626e+01 2.88442e+01
2.39965e+01 3.32503e+01 3.05408e+01
3.11952e+01 3.74066e+01 3.05408e+01
3.11952e+01 2.90942e+01 3.05408e+01
2.87956e+01 3.32503e+01 2.37542e+01
2.87956e+01 3.32503e+01 2.88442e+01
3.59944e+01 3.74066e+01 2.88442e+01
3.59944e+01 2.90942e+01 2.88442e+01
3.35948e+01 3.32503e+01 2.20576e+01
2.87956e+01 2.49380e+01 2.37542e+01
3.59944e+01 2.90942e+01 2.37542e+01
3.59944e+01 2.07819e+01 2.37542e+01
3.35948e+01 2.49380e+01 1.69675e+01
3.35948e+01 2.49380e+01 2.20576e+01
4.07935e+01 2.90942e+01 2.20576e+01
4.07935e+01 2.07819e+01 2.20576e+01
3.83939e+01 2.49380e+01 1.52710e+01
3.35948e+01 1.66257e+01 1.69675e+01
4.07935e+01 2.07819e+01 1.69675e+01
4.07935e+01 1.24695e+01 1.69675e+01
3.83939e+01 1.66257e+01 1.01809e+01
3.83939e+01 1.66257e+01 1.52710e+01
4.55927e+01 2.07819e+01 1.52710e+01
4.55927e+01 1.24695e+01 1.52710e+01
4.31931e+01 1.66257e+01 8.48430e+00
3.83939e+01 8.31334e+00 1.01809e+01
4.55927e+01 1.24695e+01 1.01809e+01
4.55927e+01 4.15717e+00 1.01809e+01
4.31931e+01 8.31334e+00 3.39421e+00
4.31931e+01 8.31334e+00 8.48430e+00
5.03916e+01 1.24695e+01 8.48430e+00
5.03916e+01 4.15717e+00 8.48430e+00
4.79921e+01 8.31334e+00 1.69765e+00
4.31931e+01 1.00146e-03 3.39421e+00
5.03916e+01 4.15717e+00 3.39421e+00
4.79921e+01 1.00146e-03 1.69765e+00
5.51908e+01 4.15717e+00 1.69765e+00
3.11952e+01 4.57189e+01 3.05408e+01
3.59944e+01 4.57189e+01 2.88442e+01
2.87956e+01 4.15626e+01 2.37542e+01
3.59944e+01 4.57189e+01 2.37542e+01
3.59944e+01 3.74066e+01 2.37542e+01
3.35948e+01 4.15626e+01 1.69675e+01
3.35948e+01 4.15626e+01 2.20576e+01
4.07935e+01 4.57189e+01 2.20576e+01
4.07935e+01 3.74066e+01 2.20576e+01
3.83939e+01 4.15626e+01 1.52710e+01
3.35948e+01 3.32503e+01 1.69675e+01
4.07935e+01 3.74066e+01 1.69675e+01
4.07935e+01 2.90942e+01 1.69675e+01
3.83939e+01 3.32503e+01 1.01809e+01
3.83939e+01 3.32503e+01 1.52710e+01
4.55927e+01 3.74066e+01 1.52710e+01
4.55927e+01 2.90942e+01 1.52710e+01
4.31931e+01 3.32503e+01 8.48430e+00
3.83939e+01 2.49380e+01 1.01809e+01
4.55927e+01 2.90942e+01 1.01809e+01
4.55927e+01 2.07819e+01 1.01809e+01
4.31931e+01 2.49380e+01 3.39421e+00
4.31931e+01 2.49380e+01 8.48430e+00
5.03916e+01 2.90942e+01 8.48430e+00
5.03916e+01 2.07819e+01 8.48430e+00
4.79921e+01 2.49380e+01 1.69765e+00
4.31931e+01 1.66257e+01 3.39421e+00
5.03916e+01 2.07819e+01 3.39421e+00
5.03916e+01 1.24695e+01 3.39421e+00
4.79921e+01 1.66257e+01 1.69765e+00
5.51908e+01 2.07819e+01 1.69765e+00
5.51908e+01 1.24695e+01 1.69765e+00
4.07935e+01 4.57189e+01 1.69675e+01
4.55927e+01 4.57189e+01 1.52710e+01
3.83939e+01 4.15626e+01 1.01809e+01
4.55927e+01 4.57189e+01 1.01809e+01
4.55927e+01 3.74066e+01 1.01809e+01
4.31931e+01 4.15626e+01 3.39421e+00
4.31931e+01 4.15626e+01 8.48430e+00
5.03916e+01 4.57189e+01 8.48430e+00
5.03916e+01 3.74066e+01 8.48430e+00
4.79921e+01 4.15626e+01 1.69765e+00
4.31931e+01 3.32503e+01 3.39421e+00
5.03916e+01 3.74066e+01 3.39421e+00
5.03916e+01 2.90942e+01 3.39421e+00
4.79921e+01 3.32503e+01 1.69765e+00
5.51908e+01 3.74066e+01 1.69765e+00
5.51908e+01 2.90942e+01 1.69765e+00
5.03916e+01 4.57189e+01 3.39421e+00
5.51908e+01 4.57189e+01 1.69765e+00
2.40052e+00 1.24695e+01 9.67109e+01
2.40052e+00 4.15717e+00 9.67109e+01
9.65004e-04 8.31334e+00 8.99241e+01
2.40052e+00 4.15717e+00 9.16207e+01
9.60884e-04 1.00146e-03 8.48342e+01
9.65004e-04 1.00146e-03 8.99241e+01
7.19965e+00 4.15717e+00 8.99241e+01
4.80007e+00 1.00146e-03 8.31376e+01
2.40052e+00 2.90942e+01 9.67109e+01
2.40052e+00 2.07819e+01 9.67109e+01
9.65004e-04 2.49380e+01 8.99241e+01
2.40052e+00 2.07819e+01 9.16207e+01
2.40052e+00 1.24695e+01 9.16207e+01
9.60884e-04 1.66257e+01 8.48342e+01
9.65004e-04 1.66257e+01 8.99241e+01
7.19965e+00 2.07819e+01 8.99241e+01
7.19965e+00 1.24695e+01 8.99241e+01
4.80007e+00 1.66257e+01 8.31376e+01
9.60884e-04 8.31334e+00 8.48342e+01
7.19963e+00 1.24695e+01 8.48342e+01
7.19963e+00 4.15717e+00 8.48342e+01
4.80007e+00 8.31334e+00 7.80474e+01
4.80007e+00 8.31334e+00 8.31376e+01
1.19988e+01 1.24695e+01 8.31376e+01
1.19988e+01 4.15717e+00 8.31376e+01
9.59920e+00 8.31334e+00 7.63508e+01
4.80007e+00 1.00146e-03 7.80474e+01
1.19988e+01 4.15717e+00 7.80474e+01
9.59920e+00 1.00146e-03 7.12608e+01
9.59920e+00 1.00146e-03 7.63508e+01
1.67979e+01 4.15717e+00 7.63508e+01
1.43983e+01 1.00146e-03 6.95642e+01
2.40052e+00 4.57189e+01 9.67109e+01
2.40052e+00 3.74066e+01 9.67109e+01
9.65004e-04 4.15626e+01 8.99241e+01
2.40052e+00 3.74066e+01 9.16207e+01
2.40052e+00 2.90942e+01 9.16207e+01
9.60884e-04 3.32503e+01 8.48342e+01
9.65004e-04 3.32503e+01 8.99241e+01
7.19965e+00 3.74066e+01 8.99241e+01
7.19965e+00 2.90942e+01 8.99241e+01
4.80007e+00 3.32503e+01 8.31376e+01
9.60884e-04 2.49380e+01 8.48342e+01
7.19963e+00 2.90942e+01 8.48342e+01
7.19963e+00 2.07819e+01 8.48342e+01
4.80007e+00 2.49380e+01 7.80474e+01
4.80007e+00 2.49380e+01 8.31376e+01
1.19988e+01 2.90942e+01 8.31376e+01
1.19988e+01 2.07819e+01 8.31376e+01
9.59920e+00 2.49380e+01 7.63508e+01
4.80007e+00 1.66257e+01 7.80474e+01
1.19988e+01 2.07819e+01 7.80474e+01
1.19988e+01 1.24695e+01 7.80474e+01
9.59920e+00 1.66257e+01 7.12608e+01
9.59920e+00 1.66257e+01 7.63508e+01
1.67979e+01 2.07819e+01 7.63508e+01
1.67979e+01 1.24695e+01 7.63508e+01
1.43983e+01 1.66257e+01 6.95642e+01
9.59920e+00 8.31334e+00 7.12608e+01
1.67979e+01 1.24695e+01 7.12608e+01
1.67979e+01 4.15717e+00 7.12608e+01
1.43983e+01 8.31334e+00 6.44741e+01
1.43983e+01 8.31334e+00 6.95642e+01
2.15969e+01 1.24695e+01 6.95642e+01
2.15969e+01 4.15717e+00 6.95642e+01
1.91973e+01 8.31334e+00 6.27776e+01
1.43983e+01 1.00146e-03 6.44741e+01
2.15969e+01 4.15717e+00 6.44741e+01
1.91973e+01 1.00146e-03 5.76875e+01
1.91973e+01 1.00146e-03 6.27776e+01
2.63961e+01 4.15717e+00 6.27776e+01
2.39965e+01 1.00146e-03 5.59909e+01
2.40052e+00 4.57189e+01 9.16207e+01
7.19965e+00 4.57189e+01 8.99241e+01
9.60884e-04 4.15626e+01 8.48342e+01
7.19963e+00 4.57189e+01 8.48342e+01
7.19963e+00 3.74066e+01 8.48342e+01
4.80007e+00 4.15626e+01 7.80474e+01
4.80007e+00 4.15626e+01 8.31376e+01
1.19988e+01 4.57189e+01 8.31376e+01
1.19988e+01 3.74066e+01 8.31376e+01
9.59920e+00 4.15626e+01 7.63508e+01
4.80007e+00 3.32503e+01 7.80474e+01
1.19988e+01 3.74066e+01 7.80474e+01
1.19988e+01 2.90942e+01 7.80474e+01
9.59920e+00 3.32503e+01 7.12608e+01
9.59920e+00 3.32503e+01 7.63508e+01
1.67979e+01 3.74066e+01 7.63508e+01
1.67979e+01 2.90942e+01 7.63508e+01
1.43983e+01 3.32503e+01 6.95642e+01
9.59920e+00 2.49380e+01 7.12608e+01
1.67979e+01 2.90942e+01 7.12608e+01
1.67979e+01 2.07819e+01 7.12608e+01
1.43983e+01 2.49380e+01 6.44741e+01
1.43983e+01 2.49380e+01 6.95642e+01
2.15969e+01 2.90942e+01 6.95642e+01
2.15969e+01 2.07819e+01 6.95642e+01
1.91973e+01 2.49380e+01 6.27776e+01
1.43983e+01 1.66257e+01 6.44741e+01
2.15969e+01 2.07819e+01 6.44741e+01
2.15969e+01 1.24695e+01 6.44741e+01
1.91973e+01 1.66257e+01 5.76875e+01
1.91973e+01 1.66257e+01 6.27776e+01
2.63961e+01 2.07819e+01 6.27776e+01
2.63961e+01 1.24695e+01 6.27776e+01
2.39965e+01 1.66257e+01 5.59909e+01
1.91973e+01 8.31334e+00 5.76875e+01
2.63961e+01 1.24695e+01 5.76875e+01
2.63961e+01 4.15717e+00 5.76875e+01
2.39965e+01 8.31334e+00 5.09009e+01
2.39965e+01 8.31334e+00 5.59909e+01
3.11952e+01 1.24695e+01 5.59909e+01
3.11952e+01 4.15717e+00 5.59909e+01
2.87956e+01 8.31334e+00 4.92043e+01
2.39965e+01 1.00146e-03 5.09009e+01
3.11952e+01 4.15717e+00 5.09009e+01
2.87956e+01 1.00146e-03 4.41141e+01
2.87956e+01 1.00146e-03 4.92043e+01
3.59944e+01 4.15717e+00 4.92043e+01
3.35948e+01 1.00146e-03 4.24175e+01
1.19988e+01 4.57189e+01 7.80474e+01
1.67979e+01 4.57189e+01 7.63508e+01
9.59920e+00 4.15626e+01 7.12608e+01
1.67979e+01 4.57189e+01 7.12608e+01
1.67979e+01 3.74066e+01 7.12608e+01
1.43983e+01 4.15626e+01 6.44741e+01
1.43983e+01 4.15626e+01 6.95642e+01
2.15969e+01 4.57189e+01 6.95642e+01
2.15969e+01 3.74066e+01 6.95642e+01
1.91973e+01 4.15626e+01 6.27776e+01
1.43983e+01 3.32503e+01 6.44741e+01
2.15969e+01 3.74066e+01 6.44741e+01
2.15969e+01 2.90942e+01 6.44741e+01
1.91973e+01 3.32503e+01 5.76875e+01
1.91973e+01 3.32503e+01 6.27776e+01
2.63961e+01 3.74066e+01 6.27776e+01
2.63961e+01 2.90942e+01 6.27776e+01
2.39965e+01 3.32503e+01 5.59909e+01
1.91973e+01 2.49380e+01 5.76875e+01
2.63961e+01 2.90942e+01 5.76875e+01
2.63961e+01 2.07819e+01 5.76875e+01
2.39965e+01 2.49380e+01 5.09009e+01
2.39965e+01 2.49380e+01 5.59909e+01
3.11952e+01 2.90942e+01 5.59909e+01
3.11952e+01 2.07819e+01 5.59909e+01
2.87956e+01 2.49380e+01 4.92043e+01
2.39965e+01 1.66257e+01 5.09009e+01
3.11952e+01 2.07819e+01 5.09009e+01
3.11952e+01 1.24695e+01 5.09009e+01
2.87956e+01 1.66257e+01 4.41141e+01
2.87956e+01 1.66257e+01 4.92043e+01
3.59944e+01 2.07819e+01 4.92043e+01
3.59944e+01 1.24695e+01 4.92043e+01
3.35948e+01 1.66257e+01 4.24175e+01
2.87956e+01 8.31334e+00 4.41141e+01
3.59944e+01 1.24695e+01 4.41141e+01
3.59944e+01 4.15717e+00 4.41141e+01
3.35948e+01 8.31334e+00 3.73276e+01
3.35948e+01 8.31334e+00 4.24175e+01
4.07935e+01 1.24695e+01 4.24175e+01
4.07935e+01 4.15717e+00 4.24175e+01
3.83939e+01 8.31334e+00 3.56310e+01
3.35948e+01 1.00146e-03 3.73276e+01
4.07935e+01 4.15717e+00 3.73276e+01
3.83939e+01 1.00146e-03 3.05408e+01
3.83939e+01 1.00146e-03 3.56310e+01
4.55927e+01 4.15717e+00 3.56310e+01
4.31931e+01 1.00146e-03 2.88442e+01
2.15969e+01 4.57189e+01 6.44741e+01
2.63961e+01 4.57189e+01 6.27776e+01
1.91973e+01 4.15626e+01 5.76875e+01
2.63961e+01 4.57189e+01 5.76875e+01
2.63961e+01 3.74066e+01 5.76875e+01
2.39965e+01 4.15626e+01 5.09009e+01
2.39965e+01 4.15626e+01 5.59909e+01
3.11952e+01 4.57189e+01 5.59909e+01
3.11952e+01 3.74066e+01 5.59909e+01
2.87956e+01 4.15626e+01 4.92043e+01
2.39965e+01 3.32503e+01 5.09009e+01
3.11952e+01 3.74066e+01 5.09009e+01
3.11952e+01 2.90942e+01 5.09009e+01
2.87956e+01 3.32503e+01 4.41141e+01
2.87956e+01 3.32503e+01 4.92043e+01
3.59944e+01 3.74066e+01 4.92043e+01
3.59944e+01 2.90942e+01 4.92043e+01
3.35948e+01 3.32503e+01 4.24175e+01
2.87956e+01 2.49380e+01 4.41141e+01
3.59944e+01 2.90942e+01 4.41141e+01
3.59944e+01 2.07819e+01 4.41141e+01
3.35948e+01 2.49380e+01 3.73276e+01
3.35948e+01 2.49380e+01 4.24175e+01
4.07935e+01 2.90942e+01 4.24175e+01
4.07935e+01 2.07819e+01 4.24175e+01
3.83939e+01 2.49380e+01 3.56310e+01
3.35948e+01 1.66257e+01 3.73276e+01
4.07935e+01 2.07819e+01 3.73276e+01
4.07935e+01 1.24695e+01 3.73276e+01
3.83939e+01 1.66257e+01 3.05408e+01
3.83939e+01 1.66257e+01 3.56310e+01
4.55927e+01 2.07819e+01 3.56310e+01
4.55927e+01 1.24695e+01 3.56310e+01
4.31931e+01 1.66257e+01 2.88442e+01
3.83939e+01 8.31334e+00 3.05408e+01
4.55927e+01 1.24695e+01 3.05408e+01
4.55927e+01 4.15717e+00 3.05408e+01
4.31931e+01 8.31334e+00 2.37542e+01
4.31931e+01 8.31334e+00 2.88442e+01
5.03916e+01 1.24695e+01 2.88442e+01
5.03916e+01 4.15717e+00 2.88442e+01
4.79921e+01 8.31334e+00 2.20576e+01
4.31931e+01 1.00146e-03 2.37542e+01
5.03916e+01 4.15717e+00 2.37542e+01
4.79921e+01 1.00146e-03 1.69675e+01
4.79921e+01 1.00146e-03 2.20576e+01
5.51908e+01 4.15717e+00 2.20576e+01
5.27912e+01 1.00146e-03 1.52710e+01
3.11952e+01 4.57189e+01 5.09009e+01
3.59944e+01 4.57189e+01 4.92043e+01
2.87956e+01 4.15626e+01 4.41141e+01
3.59944e+01 4.57189e+01 4.41141e+01
3.59944e+01 3.74066e+01 4.41141e+01
3.35948e+01 4.15626e+01 3.73276e+01
3.35948e+01 4.15626e+01 4.24175e+01
4.07935e+01 4.57189e+01 4.24175e+01
4.07935e+01 3.74066e+01 4.24175e+01
3.83939e+01 4.15626e+01 3.56310e+01
3.35948e+01 3.32503e+01 3.73276e+01
4.07935e+01 3.74066e+01 3.73276e+01
4.07935e+01 2.90942e+01 3.73276e+01
3.83939e+01 3.32503e+01 3.05408e+01
3.83939e+01 3.32503e+01 3.56310e+01
4.55927e+01 3.74066e+01 3.56310e+01
4.55927e+01 2.90942e+01 3.56310e+01
4.31931e+01 3.32503e+01 2.88442e+01
3.83939e+01 2.49380e+01 3.05408e+01
4.55927e+01 2.90942e+01 3.05408e+01
4.55927e+01 2.07819e+01 3.05408e+01
4.31931e+01 2.49380e+01 2.37542e+01
4.31931e+01 2.49380e+01 2.88442e+01
5.03916e+01 2.90942e+01 2.88442e+01
5.03916e+01 2.07819e+01 2.88442e+01
4.79921e+01 2.49380e+01 2.20576e+01
4.31931e+01 1.66257e+01 2.37542e+01
5.03916e+01 2.07819e+01 2.37542e+01
5.03916e+01 1.24695e+01 2.37542e+01
4.79921e+01 1.66257e+01 1.69675e+01
4.79921e+01 1.66257e+01 2.20576e+01
5.51908e+01 2.07819e+01 2.20576e+01
5.51908e+01 1.24695e+01 2.20576e+01
5.27912e+01 1.66257e+01 1.52710e+01
4.79921e+01 8.31334e+00 1.69675e+01
5.51908e+01 1.24695e+01 1.69675e+01
5.51908e+01 4.15717e+00 1.69675e+01
5.27912e+01 8.31334e+00 1.01809e+01
5.27912e+01 8.31334e+00 1.52710e+01
5.27912e+01 1.00146e-03 1.01809e+01
4.07935e+01 4.57189e+01 3.73276e+01
4.55927e+01 4.57189e+01 3.56310e+01
3.83939e+01 4.15626e+01 3.05408e+01
4.55927e+01 4.57189e+01 3.05408e+01
4.55927e+01 3.74066e+01 3.05408e+01
4.31931e+01 4.15626e+01 2.37542e+01
4.31931e+01 4.15626e+01 2.88442e+01
5.03916e+01 4.57189e+01 2.88442e+01
5.03916e+01 3.74066e+01 2.88442e+01
4.79921e+01 4.15626e+01 2.20576e+01
4.31931e+01 3.32503e+01 2.37542e+01
5.03916e+01 3.74066e+01 2.37542e+01
5.03916e+01 2.90942e+01 2.37542e+01
4.79921e+01 3.32503e+01 1.69675e+01
4.79921e+01 3.32503e+01 2.20576e+01
5.51908e+01 3.74066e+01 2.20576e+01
5.51908e+01 2.90942e+01 2.20576e+01
5.27912e+01 3.32503e+01 1.52710e+01
4.79921e+01 2.49380e+01 1.69675e+01
5.51908e+01 2.90942e+01 1.69675e+01
5.51908e+01 2.07819e+01 1.69675e+01
5.27912e+01 2.49380e+01 1.01809e+01
5.27912e+01 2.49380e+01 1.52710e+01
5.27912e+01 1.66257e+01 1.01809e+01
5.03916e+01 4.57189e+01 2.37542e+01
5.51908e+01 4.57189e+01 2.20576e+01
4.79921e+01 4.15626e+01 1.69675e+01
5.51908e+01 4.57189e+01 1.69675e+01
5.51908e+01 3.74066e+01 1.69675e+01
5.27912e+01 4.15626e+01 1.01809e+01
5.27912e+01 4.15626e+01 1.52710e+01
5.27912e+01 3.32503e+01 1.01809e+01
2.40052e+00 1.24695e+01 1.17071e+02
2.40052e+00 4.15717e+00 1.17071e+02
9.65004e-04 8.31334e+00 1.10284e+02
2.40052e+00 4.15717e+00 1.11981e+02
9.60884e-04 1.00146e-03 1.05194e+02
9.65004e-04 1.00146e-03 1.10284e+02
7.19965e+00 4.15717e+00 1.10284e+02
4.80007e+00 1.00146e-03 1.03497e+02
2.40052e+00 2.90942e+01 1.17071e+02
2.40052e+00 2.07819e+01 1.17071e+02
9.65004e-04 2.49380e+01 1.10284e+02
2.40052e+00 2.07819e+01 1.11981e+02
2.40052e+00 1.24695e+01 1.11981e+02
9.60884e-04 1.66257e+01 1.05194e+02
9.65004e-04 1.66257e+01 1.10284e+02
7.19965e+00 2.07819e+01 1.10284e+02
7.19965e+00 1.24695e+01 1.10284e+02
4.80007e+00 1.66257e+01 1.03497e+02
9.60884e-04 8.31334e+00 1.05194e+02
7.19963e+00 1.24695e+01 1.05194e+02
7.19963e+00 4.15717e+00 1.05194e+02
4.80007e+00 8.31334e+00 9.84075e+01
4.80007e+00 8.31334e+00 1.03497e+02
1.19988e+01 1.24695e+01 1.03497e+02
1.19988e+01 4.15717e+00 1.03497e+02
9.59920e+00 8.31334e+00 9.67109e+01
4.80007e+00 1.00146e-03 9.84075e+01
1.19988e+01 4.15717e+00 9.84075e+01
9.59920e+00 1.00146e-03 9.16207e+01
9.59920e+00 1.00146e-03 9.67109e+01
1.67979e+01 4.15717e+00 9.67109e+01
1.43983e+01 1.00146e-03 8.99241e+01
2.40052e+00 4.57189e+01 1.17071e+02
2.40052e+00 3.74066e+01 1.17071e+02
9.65004e-04 4.15626e+01 1.10284e+02
2.40052e+00 3.74066e+01 1.11981e+02
2.40052e+00 2.90942e+01 1.11981e+02
9.60884e-04 3.32503e+01 1.05194e+02
9.65004e-04 3.32503e+01 1.10284e+02
7.19965e+00 3.74066e+01 1.10284e+02
7.19965e+00 2.90942e+01 1.10284e+02
4.80007e+00 3.32503e+01 1.03497e+02
9.60884e-04 2.49380e+01 1.05194e+02
7.19963e+00 2.90942e+01 1.05194e+02
7.19963e+00 2.07819e+01 1.05194e+02
4.80007e+00 2.49380e+01 9.84075e+01
4.80007e+00 2.49380e+01 1.03497e+02
1.19988e+01 2.90942e+01 1.03497e+02
1.19988e+01 2.07819e+01 1.03497e+02
9.59920e+00 2.49380e+01 9.67109e+01
4.80007e+00 1.66257e+01 9.84075e+01
1.19988e+01 2.07819e+01 9.84075e+01
1.19988e+01 1.24695e+01 9.84075e+01
9.59920e+00 1.66257e+01 9.16207e+01
9.59920e+00 1.66257e+01 9.67109e+01
1.67979e+01 2.07819e+01 9.67109e+01
1.67979e+01 1.24695e+01 9.67109e+01
1.43983e+01 1.66257e+01 8.99241e+01
9.59920e+00 8.31334e+00 9.16207e+01
1.67979e+01 1.24695e+01 9.16207e+01
1.67979e+01 4.15717e+00 9.16207e+01
1.43983e+01 8.31334e+00 8.48342e+01
1.43983e+01 8.31334e+00 8.99241e+01
2.15969e+01 1.24695e+01 8.99241e+01
2.15969e+01 4.15717e+00 8.99241e+01
1.91973e+01 8.31334e+00 8.31376e+01
1.43983e+01 1.00146e-03 8.48342e+01
2.15969e+01 4.15717e+00 8.48342e+01
1.91973e+01 1.00146e-03 7.80474e+01
1.91973e+01 1.00146e-03 8.31376e+01
2.63961e+01 4.15717e+00 8.31376e+01
2.39965e+01 1.00146e-03 7.63508e+01
2.40052e+00 4.57189e+01 1.11981e+02
7.19965e+00 4.57189e+01 1.10284e+02
9.60884e-04 4.15626e+01 1.05194e+02
7.19963e+00 4.57189e+01 1.05194e+02
7.19963e+00 3.74066e+01 1.05194e+02
4.80007e+00 4.15626e+01 9.84075e+01
4.80007e+00 4.15626e+01 1.03497e+02
1.19988e+01 4.57189e+01 1.03497e+02
1.19988e+01 3.74066e+01 1.03497e+02
9.59920e+00 4.15626e+01 9.67109e+01
4.80007e+00 3.32503e+01 9.84075e+01
1.19988e+01 3.74066e+01 9.84075e+01
1.19988e+01 2.90942e+01 9.84075e+01
9.59920e+00 3.32503e+01 9.16207e+01
9.59920e+00 3.32503e+01 9.67109e+01
1.67979e+01 3.74066e+01 9.67109e+01
1.67979e+01 2.90942e+01 9.67109e+01
1.43983e+01 3.32503e+01 8.99241e+01
9.59920e+00 2.49380e+01 9.16207e+01
1.67979e+01 2.90942e+01 9.16207e+01
1.67979e+01 2.07819e+01 9.16207e+01
1.43983e+01 2.49380e+01 8.48342e+01
1.43983e+01 2.49380e+01 8.99241e+01
2.15969e+01 2.90942e+01 8.99241e+01
2.15969e+01 2.07819e+01 8.99241e+01
1.91973e+01 2.49380e+01 8.31376e+01
1.43983e+01 1.66257e+01 8.48342e+01
2.15969e+01 2.07819e+01 8.48342e+01
2.15969e+01 1.24695e+01 8.48342e+01
1.91973e+01 1.66257e+01 7.80474e+01
1.91973e+01 1.66257e+01 8.31376e+01
2.63961e+01 2.07819e+01 8.31376e+01
2.63961e+01 1.24695e+01 8.31376e+01
2.39965e+01 1.66257e+01 7.63508e+01
1.91973e+01 8.31334e+00 7.80474e+01
2.63961e+01 1.24695e+01 7.80474e+01
2.63961e+01 4.15717e+00 7.80474e+01
2.39965e+01 8.31334e+00 7.12608e+01
2.39965e+01 8.31334e+00 7.63508e+01
3.11952e+01 1.24695e+01 7.63508e+01
3.11952e+01 4.15717e+00 7.63508e+01
2.87956e+01 8.31334e+00 6.95642e+01
2.39965e+01 1.00146e-03 7.12608e+01
3.11952e+01 4.15717e+00 7.12608e+01
2.87956e+01 1.00146e-03 6.44741e+01
2.87956e+01 1.00146e-03 6.95642e+01
3.59944e+01 4.15717e+00 6.95642e+01
3.35948e+01 1.00146e-03 6.27776e+01
1.19988e+01 4.57189e+01 9.84075e+01
1.67979e+01 4.57189e+01 9.67109e+01
9.59920e+00 4.15626e+01 9.16207e+01
1.67979e+01 4.57189e+01 9.16207e+01
1.67979e+01 3.74066e+01 9.16207e+01
1.43983e+01 4.15626e+01 8.48342e+01
1.43983e+01 4.15626e+01 8.99241e+01
2.15969e+01 4.57189e+01 8.99241e+01
2.15969e+01 3.74066e+01 8.99241e+01
1.91973e+01 4.15626e+01 8.31376e+01
1.43983e+01 3.32503e+01 8.48342e+01
2.15969e+01 3.74066e+01 8.48342e+01
2.15969e+01 2.90942e+01 8.48342e+01
1.91973e+01 3.32503e+01 7.80474e+01
1.91973e+01 3.32503e+01 8.31376e+01
2.63961e+01 3.74066e+01 8.31376e+01
2.63961e+01 2.90942e+01 8.31376e+01
2.39965e+01 3.32503e+01 7.63508e+01
1.91973e+01 2.49380e+01 7.80474e+01
2.63961e+01 2.90942e+01 7.80474e+01
2.63961e+01 2.07819e+01 7.80474e+01
2.39965e+01 2.49380e+01 7.12608e+01
2.39965e+01 2.49380e+01 7.63508e+01
3.11952e+01 2.90942e+01 7.63508e+01
3.11952e+01 2.07819e+01 7.63508e+01
2.87956e+01 2.49380e+01 6.95642e+01
2.39965e+01 1.66257e+01 7.12608e+01
3.11952e+01 2.07819e+01 7.12608e+01
3.11952e+01 1.24695e+01 7.12608e+01
2.87956e+01 1.66257e+01 6.44741e+01
2.87956e+01 1.66257e+01 6.95642e+01
3.59944e+01 2.07819e+01 6.95642e+01
3.59944e+01 1.24695e+01 6.95642e+01
3.35948e+01 1.66257e+01 6.27776e+01
2.87956e+01 8.31334e+00 6.44741e+01
3.59944e+01 1.24695e+01 6.44741e+01
3.59944e+01 4.15717e+00 6.44741e+01
3.35948e+01 8.31334e+00 5.76875e+01
3.35948e+01 8.31334e+00 6.27776e+01
4.07935e+01 1.24695e+01 6.27776e+01
4.07935e+01 4.15717e+00 6.27776e+01
3.83939e+01 8.31334e+00 5.59909e+01
3.35948e+01 1.00146e-03 5.76875e+01
4.07935e+01 4.15717e+00 5.76875e+01
3.83939e+01 1.00146e-03 5.09009e+01
3.83939e+01 1.00146e-03 5.59909e+01
4.55927e+01 4.15717e+00 5.59909e+01
4.31931e+01 1.00146e-03 4.92043e+01
2.15969e+01 4.57189e+01 8.48342e+01
2.63961e+01 4.57189e+01 8.31376e+01
1.91973e+01 4.15626e+01 7.80474e+01
2.63961e+01 4.57189e+01 7.80474e+01
2.63961e+01 3.74066e+01 7.80474e+01
2.39965e+01 4.15626e+01 7.12608e+01
2.39965e+01 4.15626e+01 7.63508e+01
3.11952e+01 4.57189e+01 7.63508e+01
3.11952e+01 3.74066e+01 7.63508e+01
2.87956e+01 4.15626e+01 6.95642e+01
2.39965e+01 3.32503e+01 7.12608e+01
3.11952e+01 3.74066e+01 7.12608e+01
3.11952e+01 2.90942e+01 7.12608e+01
2.87956e+01 3.32503e+01 6.44741e+01
2.87956e+01 3.32503e+01 6.95642e+01
3.59944e+01 3.74066e+01 6.95642e+01
3.59944e+01 2.90942e+01 6.95642e+01
3.35948e+01 3.32503e+01 6.27776e+01
2.87956e+01 2.49380e+01 6.44741e+01
3.59944e+01 2.90942e+01 6.44741e+01
3.59944e+01 2.07819e+01 6.44741e+01
3.35948e+01 2.49380e+01 5.76875e+01
3.35948e+01 2.49380e+01 6.27776e+01
4.07935e+01 2.90942e+01 6.27776e+01
4.07935e+01 2.07819e+01 6.27776e+01
3.83939e+01 2.49380e+01 5.59909e+01
3.35948e+01 1.66257e+01 5.76875e+01
4.07935e+01 2.07819e+01 5.76875e+01
4.07935e+01 1.24695e+01 5.76875e+01
3.83939e+01 1.66257e+01 5.09009e+01
3.83939e+01 1.66257e+01 5.59909e+01
4.55927e+01 2.07819e+01 5.59909e+01
4.55927e+01 1.24695e+01 5.59909e+01
4.31931e+01 1.66257e+01 4.92043e+01
3.83939e+01 8.31334e+00 5.09009e+01
4.55927e+01 1.24695e+01 5.09009e+01
4.55927e+01 4.15717e+00 5.09009e+01
4.31931e+01 8.31334e+00 4.41141e+01
4.31931e+01 8.31334e+00 4.92043e+01
5.03916e+01 1.24695e+01 4.92043e+01
5.03916e+01 4.15717e+00 4.92043e+01
4.79921e+01 8.31334e+00 4.24175e+01
4.31931e+01 1.00146e-03 4.41141e+01
5.03916e+01 4.15717e+00 4.41141e+01
4.79921e+01 1.00146e-03 3.73276e+01
4.79921e+01 1.00146e-03 4.24175e+01
5.51908e+01 4.15717e+00 4.24175e+01
5.27912e+01 1.00146e-03 3.56310e+01
3.11952e+01 4.57189e+01 7.12608e+01
3.59944e+01 4.57189e+01 6.95642e+01
2.87956e+01 4.15626e+01 6.44741e+01
3.59944e+01 4.57189e+01 6.44741e+01
3.59944e+01 3.74066e+01 6.44741e+01
3.35948e+01 4.15626e+01 5.76875e+01
3.35948e+01 4.15626e+01 6.27776e+01
4.07935e+01 4.57189e+01 6.27776e+01
4.07935e+01 3.74066e+01 6.27776e+01
3.83939e+01 4.15626e+01 5.59909e+01
3.35948e+01 3.32503e+01 5.76875e+01
4.07935e+01 3.74066e+01 5.76875e+01
4.07935e+01 2.90942e+01 5.76875e+01
3.83939e+01 3.32503e+01 5.09009e+01
3.83939e+01 3.32503e+01 5.59909e+01
4.55927e+01 3.74066e+01 5.59909e+01
4.55927e+01 2.90942e+01 5.59909e+01
4.31931e+01 3.32503e+01 4.92043e+01
3.83939e+01 2.49380e+01 5.09009e+01
4.55927e+01 2.90942e+01 5.09009e+01
4.55927e+01 2.07819e+01 5.09009e+01
4.31931e+01 2.49380e+01 4.41141e+01
4.31931e+01 2.49380e+01 4.92043e+01
5.03916e+01 2.90942e+01 4.92043e+01
5.03916e+01 2.07819e+01 4.92043e+01
4.79921e+01 2.49380e+01 4.24175e+01
4.31931e+01 1.66257e+01 4.41141e+01
5.03916e+01 2.07819e+01 4.41141e+01
5.03916e+01 1.24695e+01 4.41141e+01
4.79921e+01 1.66257e+01 3.73276e+01
4.79921e+01 1.66257e+01 4.24175e+01
5.51908e+01 2.07819e+01 4.24175e+01
5.51908e+01 1.24695e+01 4.24175e+01
5.27912e+01 1.66257e+01 3.56310e+01
4.79921e+01 8.31334e+00 3.73276e+01
5.51908e+01 1.24695e+01 3.73276e+01
5.51908e+01 4.15717e+00 3.73276e+01
5.27912e+01 8.31334e+00 3.05408e+01
5.27912e+01 8.31334e+00 3.56310e+01
5.27912e+01 1.00146e-03 3.05408e+01
4.07935e+01 4.57189e+01 5.76875e+01
4.55927e+01 4.57189e+01 5.59909e+01
3.83939e+01 4.15626e+01 5.09009e+01
4.55927e+01 4.57189e+01 5.09009e+01
4.55927e+01 3.74066e+01 5.09009e+01
4.31931e+01 4.15626e+01 4.41141e+01
4.31931e+01 4.15626e+01 4.92043e+01
5.03916e+01 4.57189e+01 4.92043e+01
5.03916e+01 3.74066e+01 4.92043e+01
4.79921e+01 4.15626e+01 4.24175e+01
4.31931e+01 3.32503e+01 4.41141e+01
5.03916e+01 3.74066e+01 4.41141e+01
5.03916e+01 2.90942e+01 4.41141e+01
4.79921e+01 3.32503e+01 3.73276e+01
4.79921e+01 3.32503e+01 4.24175e+01
5.51908e+01 3.74066e+01 4.24175e+01
5.51908e+01 2.90942e+01 4.24175e+01
5.27912e+01 3.32503e+01 3.56310e+01
4.79921e+01 2.49380e+01 3.73276e+01
5.51908e+01 2.90942e+01 3.73276e+01
5.51908e+01 2.07819e+01 3.73276e+01
5.27912e+01 2.49380e+01 3.05408e+01
5.27912e+01 2.49380e+01 3.56310e+01
5.27912e+01 1.66257e+01 3.05408e+01
5.03916e+01 4.57189e+01 4.41141e+01
5.51908e+01 4.57189e+01 4.24175e+01
4.79921e+01 4.15626e+01 3.73276e+01
5.51908e+01 4.57189e+01 3.73276e+01
5.51908e+01 3.74066e+01 3.73276e+01
5.27912e+01 4.15626e+01 3.05408e+01
5.27912e+01 4.15626e+01 3.56310e+01
5.27912e+01 3.32503e+01 3.05408e+01
4.80007e+00 8.31334e+00 1.18767e+02
9.59920e+00 8.31334e+00 1.17071e+02
4.80007e+00 1.00146e-03 1.18767e+02
1.19988e+01 4.15717e+00 1.18767e+02
9.59920e+00 1.00146e-03 1.11981e+02
9.59920e+00 1.00146e-03 1.17071e+02
1.67979e+01 4.15717e+00 1.17071e+02
1.43983e+01 1.00146e-03 1.10284e+02
4.80007e+00 2.49380e+01 1.18767e+02
9.59920e+00 2.49380e+01 1.17071e+02
4.80007e+00 1.66257e+01 1.18767e+02
1.19988e+01 2.07819e+01 1.18767e+02
1.19988e+01 1.24695e+01 1.18767e+02
9.59920e+00 1.66257e+01 1.11981e+02
9.59920e+00 1.66257e+01 1.17071e+02
1.67979e+01 2.07819e+01 1.17071e+02
1.67979e+01 1.24695e+01 1.17071e+02
1.43983e+01 1.66257e+01 1.10284e+02
9.59920e+00 8.31334e+00 1.11981e+02
1.67979e+01 1.24695e+01 1.11981e+02
1.67979e+01 4.15717e+00 1.11981e+02
1.43983e+01 8.31334e+00 1.05194e+02
1.43983e+01 8.31334e+00 1.10284e+02
2.15969e+01 1.24695e+01 1.10284e+02
2.15969e+01 4.15717e+00 1.10284e+02
1.91973e+01 8.31334e+00 1.03497e+02
1.43983e+01 1.00146e-03 1.05194e+02
2.15969e+01 4.15717e+00 1.05194e+02
1.91973e+01 1.00146e-03 9.84075e+01
1.91973e+01 1.00146e-03 1.03497e+02
2.63961e+01 4.15717e+00 1.03497e+02
2.39965e+01 1.00146e-03 9.67109e+01
4.80007e+00 4.15626e+01 1.18767e+02
9.59920e+00 4.15626e+01 1.17071e+02
4.80007e+00 3.32503e+01 1.18767e+02
1.19988e+01 3.74066e+01 1.18767e+02
1.19988e+01 2.90942e+01 1.18767e+02
9.59920e+00 3.32503e+01 1.11981e+02
9.59920e+00 3.32503e+01 1.17071e+02
1.67979e+01 3.74066e+01 1.17071e+02
1.67979e+01 2.90942e+01 1.17071e+02
1.43983e+01 3.32503e+01 1.10284e+02
9.59920e+00 2.49380e+01 1.11981e+02
1.67979e+01 2.90942e+01 1.11981e+02
1.67979e+01 2.07819e+01 1.11981e+02
1.43983e+01 2.49380e+01 1.05194e+02
1.43983e+01 2.49380e+01 1.10284e+02
2.15969e+01 2.90942e+01 1.10284e+02
2.15969e+01 2.07819e+01 1.10284e+02
1.91973e+01 2.49380e+01 1.03497e+02
1.43983e+01 1.66257e+01 1.05194e+02
2.15969e+01 2.07819e+01 1.05194e+02
2.15969e+01 1.24695e+01 1.05194e+02
1.91973e+01 1.66257e+01 9.84075e+01
1.91973e+01 1.66257e+01 1.03497e+02
2.63961e+01 2.07819e+01 1.03497e+02
2.63961e+01 1.24695e+01 1.03497e+02
2.39965e+01 1.66257e+01 9.67109e+01
1.91973e+01 8.31334e+00 9.84075e+01
2.63961e+01 1.24695e+01 9.84075e+01
2.63961e+01 4.15717e+00 9.84075e+01
2.39965e+01 8.31334e+00 9.16207e+01
2.39965e+01 8.31334e+00 9.67109e+01
3.11952e+01 1.24695e+01 9.67109e+01
3.11952e+01 4.15717e+00 9.67109e+01
2.87956e+01 8.31334e+00 8.99241e+01
2.39965e+01 1.00146e-03 9.16207e+01
3.11952e+01 4.15717e+00 9.16207e+01
2.87956e+01 1.00146e-03 8.48342e+01
2.87956e+01 1.00146e-03 8.99241e+01
3.59944e+01 4.15717e+00 8.99241e+01
3.35948e+01 1.00146e-03 8.31376e+01
1.19988e+01 4.57189e+01 1.18767e+02
1.67979e+01 4.57189e+01 1.17071e+02
9.59920e+00 4.15626e+01 1.11981e+02
1.67979e+01 4.57189e+01 1.11981e+02
1.67979e+01 3.74066e+01 1.11981e+02
1.43983e+01 4.15626e+01 1.05194e+02
1.43983e+01 4.15626e+01 1.10284e+02
2.15969e+01 4.57189e+01 1.10284e+02
2.15969e+01 3.74066e+01 1.10284e+02
1.91973e+01 4.15626e+01 1.03497e+02
1.43983e+01 3.32503e+01 1.05194e+02
2.15969e+01 3.74066e+01 1.05194e+02
2.15969e+01 2.90942e+01 1.05194e+02
1.91973e+01 3.32503e+01 9.84075e+01
1.91973e+01 3.32503e+01 1.03497e+02
2.63961e+01 3.74066e+01 1.03497e+02
2.63961e+01 2.90942e+01 1.03497e+02
2.39965e+01 3.32503e+01 9.67109e+01
1.91973e+01 2.49380e+01 9.84075e+01
2.63961e+01 2.90942e+01 9.84075e+01
2.63961e+01 2.07819e+01 9.84075e+01
2.39965e+01 2.49380e+01 9.16207e+01
2.39965e+01 2.49380e+01 9.67109e+01
3.11952e+01 2.90942e+01 9.67109e+01
3.11952e+01 2.07819e+01 9.67109e+01
2.87956e+01 2.49380e+01 8.99241e+01
2.39965e+01 1.66257e+01 9.16207e+01
3.11952e+01 2.07819e+01 9.16207e+01
3.11952e+01 1.24695e+01 9.16207e+01
2.87956e+01 1.66257e+01 8.48342e+01
2.87956e+01 1.66257e+01 8.99241e+01
3.59944e+01 2.07819e+01 8.99241e+01
3.59944e+01 1.24695e+01 8.99241e+01
3.35948e+01 1.66257e+01 8.31376e+01
2.87956e+01 8.31334e+00 8.48342e+01
3.59944e+01 1.24695e+01 8.48342e+01
3.59944e+01 4.15717e+00 8.48342e+01
3.35948e+01 8.31334e+00 7.80474e+01
3.35948e+01 8.31334e+00 8.31376e+01
4.07935e+01 1.24695e+01 8.31376e+01
4.07935e+01 4.15717e+00 8.31376e+01
3.83939e+01 8.31334e+00 7.63508e+01
3.35948e+01 1.00146e-03 7.80474e+01
4.07935e+01 4.15717e+00 7.80474e+01
3.83939e+01 1.00146e-03 7.12608e+01
3.83939e+01 1.00146e-03 7.63508e+01
4.55927e+01 4.15717e+00 7.63508e+01
4.31931e+01 1.00146e-03 6.95642e+01
2.15969e+01 4.57189e+01 1.05194e+02
2.63961e+01 4.57189e+01 1.03497e+02
1.91973e+01 4.15626e+01 9.84075e+01
2.63961e+01 4.57189e+01 9.84075e+01
2.63961e+01 3.74066e+01 9.84075e+01
2.39965e+01 4.15626e+01 9.16207e+01
2.39965e+01 4.15626e+01 9.67109e+01
3.11952e+01 4.57189e+01 9.67109e+01
3.11952e+01 3.74066e+01 9.67109e+01
2.87956e+01 4.15626e+01 8.99241e+01
2.39965e+01 3.32503e+01 9.16207e+01
3.11952e+01 3.74066e+01 9.16207e+01
3.11952e+01 2.90942e+01 9.16207e+01
2.87956e+01 3.32503e+01 8.48342e+01
2.87956e+01 3.32503e+01 8.99241e+01
3.59944e+01 3.74066e+01 8.99241e+01
3.59944e+01 2.90942e+01 8.99241e+01
3.35948e+01 3.32503e+01 8.31376e+01
2.87956e+01 2.49380e+01 8.48342e+01
3.59944e+01 2.90942e+01 8.48342e+01
3.59944e+01 2.07819e+01 8.48342e+01
3.35948e+01 2.49380e+01 7.80474e+01
3.35948e+01 2.49380e+01 8.31376e+01
4.07935e+01 2.90942e+01 8.31376e+01
4.07935e+01 2.07819e+01 8.31376e+01
3.83939e+01 2.49380e+01 7.63508e+01
3.35948e+01 1.66257e+01 7.80474e+01
4.07935e+01 2.07819e+01 7.80474e+01
4.07935e+01 1.24695e+01 7.80474e+01
3.83939e+01 1.66257e+01 7.12608e+01
3.83939e+01 1.66257e+01 7.63508e+01
4.55927e+01 2.07819e+01 7.63508e+01
4.55927e+01 1.24695e+01 7.63508e+01
4.31931e+01 1.66257e+01 6.95642e+01
3.83939e+01 8.31334e+00 7.12608e+01
4.55927e+01 1.24695e+01 7.12608e+01
4.55927e+01 4.15717e+00 7.12608e+01
4.31931e+01 8.31334e+00 6.44741e+01
4.31931e+01 8.31334e+00 6.95642e+01
5.03916e+01 1.24695e+01 6.95642e+01
5.03916e+01 4.15717e+00 6.95642e+01
4.79921e+01 8.31334e+00 6.27776e+01
4.31931e+01 1.00146e-03 6.44741e+01
5.03916e+01 4.15717e+00 6.44741e+01
4.79921e+01 1.00146e-03 5.76875e+01
4.79921e+01 1.00146e-03 6.27776e+01
5.51908e+01 4.15717e+00 6.27776e+01
5.27912e+01 1.00146e-03 5.59909e+01
3.11952e+01 4.57189e+01 9.16207e+01
3.59944e+01 4.57189e+01 8.99241e+01
2.87956e+01 4.15626e+01 8.48342e+01
3.59944e+01 4.57189e+01 8.48342e+01
3.59944e+01 3.74066e+01 8.48342e+01
3.35948e+01 4.15626e+01 7.80474e+01
3.35948e+01 4.15626e+01 8.31376e+01
4.07935e+01 4.57189e+01 8.31376e+01
4.07935e+01 3.74066e+01 8.31376e+01
3.83939e+01 4.15626e+01 7.63508e+01
3.35948e+01 3.32503e+01 7.80474e+01
4.07935e+01 3.74066e+01 7.80474e+01
4.07935e+01 2.90942e+01 7.80474e+01
3.83939e+01 3.32503e+01 7.12608e+01
3.83939e+01 3.32503e+01 7.63508e+01
4.55927e+01 3.74066e+01 7.63508e+01
4.55927e+01 2.90942e+01 7.63508e+01
4.31931e+01 3.32503e+01 6.95642e+01
3.83939e+01 2.49380e+01 7.12608e+01
4.55927e+01 2.90942e+01 7.12608e+01
4.55927e+01 2.07819e+01 7.12608e+01
4.31931e+01 2.49380e+01 6.44741e+01
4.31931e+01 2.49380e+01 6.95642e+01
5.03916e+01 2.90942e+01 6.95642e+01
5.03916e+01 2.07819e+01 6.95642e+01
4.79921e+01 2.49380e+01 6.27776e+01
4.31931e+01 1.66257e+01 6.44741e+01
5.03916e+01 2.07819e+01 6.44741e+01
5.03916e+01 1.24695e+01 6.44741e+01
4.79921e+01 1.66257e+01 5.76875e+01
4.79921e+01 1.66257e+01 6.27776e+01
5.51908e+01 2.07819e+01 6.27776e+01
5.51908e+01 1.24695e+01 6.27776e+01
5.27912e+01 1.66257e+01 5.59909e+01
4.79921e+01 8.31334e+00 5.76875e+01
5.51908e+01 1.24695e+01 5.76875e+01
5.51908e+01 4.15717e+00 5.76875e+01
5.27912e+01 8.31334e+00 5.09009e+01
5.27912e+01 8.31334e+00 5.59909e+01
5.27912e+01 1.00146e-03 5.09009e+01
4.07935e+01 4.57189e+01 7.80474e+01
4.55927e+01 4.57189e+01 7.63508e+01
3.83939e+01 4.15626e+01 7.12608e+01
4.55927e+01 4.57189e+01 7.12608e+01
4.55927e+01 3.74066e+01 7.12608e+01
4.31931e+01 4.15626e+01 6.44741e+01
4.31931e+01 4.15626e+01 6.95642e+01
5.03916e+01 4.57189e+01 6.95642e+01
5.03916e+01 3.74066e+01 6.95642e+01
4.79921e+01 4.15626e+01 6.27776e+01
4.31931e+01 3.32503e+01 6.44741e+01
5.03916e+01 3.74066e+01 6.44741e+01
5.03916e+01 2.90942e+01 6.44741e+01
4.79921e+01 3.32503e+01 5.76875e+01
4.79921e+01 3.32503e+01 6.27776e+01
5.51908e+01 3.74066e+01 6.27776e+01
5.51908e+01 2.90942e+01 6.27776e+01
5.27912e+01 3.32503e+01 5.59909e+01
4.79921e+01 2.49380e+01 5.76875e+01
5.51908e+01 2.90942e+01 5.76875e+01
5.51908e+01 2.07819e+01 5.76875e+01
5.27912e+01 2.49380e+01 5.09009e+01
5.27912e+01 2.49380e+01 5.59909e+01
5.27912e+01 1.66257e+01 5.09009e+01
5.03916e+01 4.57189e+01 6.44741e+01
5.51908e+01 4.57189e+01 6.27776e+01
4.79921e+01 4.15626e+01 5.76875e+01
5.51908e+01 4.57189e+01 5.76875e+01
5.51908e+01 3.74066e+01 5.76875e+01
5.27912e+01 4.15626e+01 5.09009e+01
5.27912e+01 4.15626e+01 5.59909e+01
5.27912e+01 3.32503e+01 5.09009e+01
1.91973e+01 1.00146e-03 1.18767e+02
2.39965e+01 1.00146e-03 1.17071e+02
1.91973e+01 1.66257e+01 1.18767e+02
2.39965e+01 1.66257e+01 1.17071e+02
1.91973e+01 8.31334e+00 1.18767e+02
2.63961e+01 1.24695e+01 1.18767e+02
2.63961e+01 4.15717e+00 1.18767e+02
2.39965e+01 8.31334e+00 1.11981e+02
2.39965e+01 8.31334e+00 1.17071e+02
3.11952e+01 1.24695e+01 1.17071e+02
3.11952e+01 4.15717e+00 1.17071e+02
2.87956e+01 8.31334e+00 1.10284e+02
2.39965e+01 1.00146e-03 1.11981e+02
3.11952e+01 4.15717e+00 1.11981e+02
2.87956e+01 1.00146e-03 1.05194e+02
2.87956e+01 1.00146e-03 1.10284e+02
3.59944e+01 4.15717e+00 1.10284e+02
3.35948e+01 1.00146e-03 1.03497e+02
1.91973e+01 3.32503e+01 1.18767e+02
2.39965e+01 3.32503e+01 1.17071e+02
1.91973e+01 2.49380e+01 1.18767e+02
