30.475 4.8343e-15 1.79565
2.53958 4.68625e-15 0.897862
30.475 8.7974 1.79565
2.53958 8.7974 0.897862
30.475 4.3987 1.79565
3.80937 6.59805 1.79565
3.80937 2.19935 1.79565
2.53958 4.3987 0.897862
6.34896 6.59805 0.897862
6.34896 2.19935 0.897862
30.475 17.5948 1.79565
2.53958 17.5948 0.897862
30.475 13.1961 1.79565
3.80937 15.3955 1.79565
3.80937 10.9968 1.79565
2.53958 13.1961 0.897862
6.34896 15.3955 0.897862
6.34896 10.9968 0.897862
30.475 21.9935 1.79565
3.80937 24.1929 1.79565
3.80937 19.7942 1.79565
2.53958 21.9935 0.897862
6.34896 24.1929 0.897862
6.34896 19.7942 0.897862
7.61875 4.3987 1.79565
10.1583 4.3987 0.897862
7.61875 5.06255e-15 1.79565
11.4281 2.19935 1.79565
10.1583 5.19482e-15 0.897862
13.9677 2.19935 0.897862
7.61875 13.1961 1.79565
10.1583 13.1961 0.897862
7.61875 8.7974 1.79565
11.4281 10.9968 1.79565
11.4281 6.59805 1.79565
10.1583 8.7974 0.897862
13.9677 10.9968 0.897862
13.9677 6.59805 0.897862
7.61875 21.9935 1.79565
10.1583 21.9935 0.897862
7.61875 17.5948 1.79565
11.4281 19.7942 1.79565
11.4281 15.3955 1.79565
10.1583 17.5948 0.897862
13.9677 19.7942 0.897862
13.9677 15.3955 0.897862
11.4281 24.1929 1.79565
13.9677 24.1929 0.897862
15.2375 5.04901e-15 1.79565
17.7771 4.92849e-15 0.897862
15.2375 8.7974 1.79565
17.7771 8.7974 0.897862
15.2375 4.3987 1.79565
19.0469 6.59805 1.79565
19.0469 2.19935 1.79565
17.7771 4.3987 0.897862
21.5865 6.59805 0.897862
21.5865 2.19935 0.897862
15.2375 17.5948 1.79565
17.7771 17.5948 0.897862
15.2375 13.1961 1.79565
19.0469 15.3955 1.79565
19.0469 10.9968 1.79565
17.7771 13.1961 0.897862
21.5865 15.3955 0.897862
21.5865 10.9968 0.897862
15.2375 21.9935 1.79565
19.0469 24.1929 1.79565
19.0469 19.7942 1.79565
17.7771 21.9935 0.897862
21.5865 24.1929 0.897862
21.5865 19.7942 0.897862
22.8562 4.3987 1.79565
25.3958 4.3987 0.897862
22.8562 4.8746e-15 1.79565
26.6656 2.19935 1.79565
25.3958 5.4822e-15 0.897862
29.2052 2.19935 0.897862
22.8562 13.1961 1.79565
25.3958 13.1961 0.897862
22.8562 8.7974 1.79565
26.6656 10.9968 1.79565
26.6656 6.59805 1.79565
25.3958 8.7974 0.897862
29.2052 10.9968 0.897862
29.2052 6.59805 0.897862
22.8562 21.9935 1.79565
25.3958 21.9935 0.897862
22.8562 17.5948 1.79565
26.6656 19.7942 1.79565
26.6656 15.3955 1.79565
25.3958 17.5948 0.897862
29.2052 19.7942 0.897862
29.2052 15.3955 0.897862
26.6656 24.1929 1.79565
29.2052 24.1929 0.897862
29.2052 19.7942 5.38699
29.2052 24.1929 5.38699
26.6656 19.7942 4.48921
26.6656 24.1929 4.48921
29.2052 10.9968 5.38699
29.2052 15.3955 5.38699
26.6656 10.9968 4.48921
26.6656 15.3955 4.48921
29.2052 2.19935 5.38699
29.2052 6.59805 5.38699
26.6656 2.19935 4.48921
26.6656 6.59805 4.48921
25.3958 21.9935 5.38699
22.8562 21.9935 4.48921
21.5865 24.1929 5.38699
19.0469 24.1929 4.48921
25.3958 13.1961 5.38699
22.8562 13.1961 4.48921
25.3958 17.5948 5.38699
21.5865 15.3955 5.38699
21.5865 19.7942 5.38699
22.8562 17.5948 4.48921
19.0469 15.3955 4.48921
19.0469 19.7942 4.48921
25.3958 4.3987 5.38699
22.8562 4.3987 4.48921
25.3958 8.7974 5.38699
21.5865 6.59805 5.38699
21.5865 10.9968 5.38699
22.8562 8.7974 4.48921
19.0469 6.59805 4.48921
19.0469 10.9968 4.48921
25.3958 4.71421e-15 5.38699
21.5865 2.19935 5.38699
22.8562 4.77116e-15 4.48921
19.0469 2.19935 4.48921
17.7771 17.5948 5.38699
15.2375 17.5948 4.48921
17.7771 21.9935 5.38699
13.9677 19.7942 5.38699
13.9677 24.1929 5.38699
15.2375 21.9935 4.48921
11.4281 19.7942 4.48921
11.4281 24.1929 4.48921
17.7771 8.7974 5.38699
15.2375 8.7974 4.48921
17.7771 13.1961 5.38699
13.9677 10.9968 5.38699
13.9677 15.3955 5.38699
15.2375 13.1961 4.48921
11.4281 10.9968 4.48921
11.4281 15.3955 4.48921
17.7771 5.36916e-15 5.38699
15.2375 5.08641e-15 4.48921
17.7771 4.3987 5.38699
13.9677 2.19935 5.38699
13.9677 6.59805 5.38699
15.2375 4.3987 4.48921
11.4281 2.19935 4.48921
11.4281 6.59805 4.48921
10.1583 21.9935 5.38699
7.61875 21.9935 4.48921
6.34896 24.1929 5.38699
3.80937 24.1929 4.48921
10.1583 13.1961 5.38699
7.61875 13.1961 4.48921
10.1583 17.5948 5.38699
6.34896 15.3955 5.38699
6.34896 19.7942 5.38699
7.61875 17.5948 4.48921
3.80937 15.3955 4.48921
3.80937 19.7942 4.48921
10.1583 4.3987 5.38699
7.61875 4.3987 4.48921
10.1583 8.7974 5.38699
6.34896 6.59805 5.38699
6.34896 10.9968 5.38699
7.61875 8.7974 4.48921
3.80937 6.59805 4.48921
3.80937 10.9968 4.48921
10.1583 5.14976e-15 5.38699
6.34896 2.19935 5.38699
7.61875 5.02824e-15 4.48921
3.80937 2.19935 4.48921
2.53958 17.5948 5.38699
30.475 17.5948 4.48921
2.53958 21.9935 5.38699
30.475 21.9935 4.48921
2.53958 8.7974 5.38699
30.475 8.7974 4.48921
2.53958 13.1961 5.38699
30.475 13.1961 4.48921
2.53958 4.87795e-15 5.38699
30.475 5.00715e-15 4.48921
2.53958 4.3987 5.38699
30.475 4.3987 4.48921
30.475 5.09313e-15 8.97834
2.53958 5.01127e-15 8.08055
30.475 8.7974 8.97834
2.53958 8.7974 8.08055
30.475 4.3987 8.97834
3.80937 6.59805 8.97834
3.80937 2.19935 8.97834
2.53958 4.3987 8.08055
6.34896 6.59805 8.08055
6.34896 2.19935 8.08055
30.475 17.5948 8.97834
2.53958 17.5948 8.08055
30.475 13.1961 8.97834
3.80937 15.3955 8.97834
3.80937 10.9968 8.97834
2.53958 13.1961 8.08055
6.34896 15.3955 8.08055
6.34896 10.9968 8.08055
30.475 21.9935 8.97834
3.80937 24.1929 8.97834
3.80937 19.7942 8.97834
2.53958 21.9935 8.08055
6.34896 24.1929 8.08055
6.34896 19.7942 8.08055
7.61875 4.3987 8.97834
10.1583 4.3987 8.08055
7.61875 5.34859e-15 8.97834
11.4281 2.19935 8.97834
10.1583 5.30931e-15 8.08055
13.9677 2.19935 8.08055
7.61875 13.1961 8.97834
10.1583 13.1961 8.08055
7.61875 8.7974 8.97834
11.4281 10.9968 8.97834
11.4281 6.59805 8.97834
10.1583 8.7974 8.08055
13.9677 10.9968 8.08055
13.9677 6.59805 8.08055
7.61875 21.9935 8.97834
10.1583 21.9935 8.08055
7.61875 17.5948 8.97834
11.4281 19.7942 8.97834
11.4281 15.3955 8.97834
10.1583 17.5948 8.08055
13.9677 19.7942 8.08055
13.9677 15.3955 8.08055
11.4281 24.1929 8.97834
13.9677 24.1929 8.08055
15.2375 5.26834e-15 8.97834
17.7771 5.00001e-15 8.08055
15.2375 8.7974 8.97834
17.7771 8.7974 8.08055
15.2375 4.3987 8.97834
19.0469 6.59805 8.97834
19.0469 2.19935 8.97834
17.7771 4.3987 8.08055
21.5865 6.59805 8.08055
21.5865 2.19935 8.08055
15.2375 17.5948 8.97834
17.7771 17.5948 8.08055
15.2375 13.1961 8.97834
19.0469 15.3955 8.97834
19.0469 10.9968 8.97834
17.7771 13.1961 8.08055
21.5865 15.3955 8.08055
21.5865 10.9968 8.08055
15.2375 21.9935 8.97834
19.0469 24.1929 8.97834
19.0469 19.7942 8.97834
17.7771 21.9935 8.08055
21.5865 24.1929 8.08055
21.5865 19.7942 8.08055
22.8562 4.3987 8.97834
25.3958 4.3987 8.08055
22.8562 4.9854e-15 8.97834
26.6656 2.19935 8.97834
25.3958 5.28332e-15 8.08055
29.2052 2.19935 8.08055
22.8562 13.1961 8.97834
25.3958 13.1961 8.08055
22.8562 8.7974 8.97834
26.6656 10.9968 8.97834
26.6656 6.59805 8.97834
25.3958 8.7974 8.08055
29.2052 10.9968 8.08055
29.2052 6.59805 8.08055
22.8562 21.9935 8.97834
25.3958 21.9935 8.08055
22.8562 17.5948 8.97834
26.6656 19.7942 8.97834
26.6656 15.3955 8.97834
25.3958 17.5948 8.08055
29.2052 19.7942 8.08055
29.2052 15.3955 8.08055
26.6656 24.1929 8.97834
29.2052 24.1929 8.08055
29.2052 19.7942 12.5697
29.2052 24.1929 12.5697
26.6656 19.7942 11.6719
26.6656 24.1929 11.6719
29.2052 10.9968 12.5697
29.2052 15.3955 12.5697
26.6656 10.9968 11.6719
26.6656 15.3955 11.6719
29.2052 2.19935 12.5697
29.2052 6.59805 12.5697
26.6656 2.19935 11.6719
26.6656 6.59805 11.6719
25.3958 21.9935 12.5697
22.8562 21.9935 11.6719
21.5865 24.1929 12.5697
19.0469 24.1929 11.6719
25.3958 13.1961 12.5697
22.8562 13.1961 11.6719
25.3958 17.5948 12.5697
21.5865 15.3955 12.5697
21.5865 19.7942 12.5697
22.8562 17.5948 11.6719
19.0469 15.3955 11.6719
19.0469 19.7942 11.6719
25.3958 4.3987 12.5697
22.8562 4.3987 11.6719
25.3958 8.7974 12.5697
21.5865 6.59805 12.5697
21.5865 10.9968 12.5697
22.8562 8.7974 11.6719
19.0469 6.59805 11.6719
19.0469 10.9968 11.6719
25.3958 4.62825e-15 12.5697
21.5865 2.19935 12.5697
22.8562 4.67989e-15 11.6719
19.0469 2.19935 11.6719
17.7771 17.5948 12.5697
15.2375 17.5948 11.6719
17.7771 21.9935 12.5697
13.9677 19.7942 12.5697
13.9677 24.1929 12.5697
15.2375 21.9935 11.6719
11.4281 19.7942 11.6719
11.4281 24.1929 11.6719
17.7771 8.7974 12.5697
15.2375 8.7974 11.6719
17.7771 13.1961 12.5697
13.9677 10.9968 12.5697
13.9677 15.3955 12.5697
15.2375 13.1961 11.6719
11.4281 10.9968 11.6719
11.4281 15.3955 11.6719
17.7771 5.16129e-15 12.5697
15.2375 4.82192e-15 11.6719
17.7771 4.3987 12.5697
13.9677 2.19935 12.5697
13.9677 6.59805 12.5697
15.2375 4.3987 11.6719
11.4281 2.19935 11.6719
11.4281 6.59805 11.6719
10.1583 21.9935 12.5697
7.61875 21.9935 11.6719
6.34896 24.1929 12.5697
3.80937 24.1929 11.6719
10.1583 13.1961 12.5697
7.61875 13.1961 11.6719
10.1583 17.5948 12.5697
6.34896 15.3955 12.5697
6.34896 19.7942 12.5697
7.61875 17.5948 11.6719
3.80937 15.3955 11.6719
3.80937 19.7942 11.6719
10.1583 4.3987 12.5697
7.61875 4.3987 11.6719
10.1583 8.7974 12.5697
6.34896 6.59805 12.5697
6.34896 10.9968 12.5697
7.61875 8.7974 11.6719
3.80937 6.59805 11.6719
3.80937 10.9968 11.6719
10.1583 5.04156e-15 12.5697
6.34896 2.19935 12.5697
7.61875 5.36817e-15 11.6719
3.80937 2.19935 11.6719
2.53958 17.5948 12.5697
30.475 17.5948 11.6719
2.53958 21.9935 12.5697
30.475 21.9935 11.6719
2.53958 8.7974 12.5697
30.475 8.7974 11.6719
2.53958 13.1961 12.5697
30.475 13.1961 11.6719
2.53958 4.55725e-15 12.5697
30.475 4.3545e-15 11.6719
2.53958 4.3987 12.5697
30.475 4.3987 11.6719
30.475 4.87825e-15 16.161
2.53958 4.8165e-15 15.2632
30.475 8.7974 16.161
2.53958 8.7974 15.2632
30.475 4.3987 16.161
3.80937 6.59805 16.161
3.80937 2.19935 16.161
2.53958 4.3987 15.2632
6.34896 6.59805 15.2632
6.34896 2.19935 15.2632
30.475 17.5948 16.161
2.53958 17.5948 15.2632
30.475 13.1961 16.161
3.80937 15.3955 16.161
3.80937 10.9968 16.161
2.53958 13.1961 15.2632
6.34896 15.3955 15.2632
6.34896 10.9968 15.2632
30.475 21.9935 16.161
3.80937 24.1929 16.161
3.80937 19.7942 16.161
2.53958 21.9935 15.2632
6.34896 24.1929 15.2632
6.34896 19.7942 15.2632
7.61875 4.3987 16.161
10.1583 4.3987 15.2632
7.61875 5.71451e-15 16.161
11.4281 2.19935 16.161
10.1583 5.22953e-15 15.2632
13.9677 2.19935 15.2632
7.61875 13.1961 16.161
10.1583 13.1961 15.2632
7.61875 8.7974 16.161
11.4281 10.9968 16.161
11.4281 6.59805 16.161
10.1583 8.7974 15.2632
13.9677 10.9968 15.2632
13.9677 6.59805 15.2632
7.61875 21.9935 16.161
10.1583 21.9935 15.2632
7.61875 17.5948 16.161
11.4281 19.7942 16.161
11.4281 15.3955 16.161
10.1583 17.5948 15.2632
13.9677 19.7942 15.2632
13.9677 15.3955 15.2632
11.4281 24.1929 16.161
13.9677 24.1929 15.2632
15.2375 5.23387e-15 16.161
17.7771 4.44759e-15 15.2632
15.2375 8.7974 16.161
17.7771 8.7974 15.2632
15.2375 4.3987 16.161
19.0469 6.59805 16.161
19.0469 2.19935 16.161
17.7771 4.3987 15.2632
21.5865 6.59805 15.2632
21.5865 2.19935 15.2632
15.2375 17.5948 16.161
17.7771 17.5948 15.2632
15.2375 13.1961 16.161
19.0469 15.3955 16.161
19.0469 10.9968 16.161
17.7771 13.1961 15.2632
21.5865 15.3955 15.2632
21.5865 10.9968 15.2632
15.2375 21.9935 16.161
19.0469 24.1929 16.161
19.0469 19.7942 16.161
17.7771 21.9935 15.2632
21.5865 24.1929 15.2632
21.5865 19.7942 15.2632
22.8562 4.3987 16.161
25.3958 4.3987 15.2632
22.8562 5.20091e-15 16.161
26.6656 2.19935 16.161
25.3958 5.23754e-15 15.2632
29.2052 2.19935 15.2632
22.8562 13.1961 16.161
25.3958 13.1961 15.2632
22.8562 8.7974 16.161
26.6656 10.9968 16.161
26.6656 6.59805 16.161
25.3958 8.7974 15.2632
29.2052 10.9968 15.2632
29.2052 6.59805 15.2632
22.8562 21.9935 16.161
25.3958 21.9935 15.2632
22.8562 17.5948 16.161
26.6656 19.7942 16.161
26.6656 15.3955 16.161
25.3958 17.5948 15.2632
29.2052 19.7942 15.2632
29.2052 15.3955 15.2632
26.6656 24.1929 16.161
29.2052 24.1929 15.2632
29.2052 19.7942 19.7524
29.2052 24.1929 19.7524
26.6656 19.7942 18.8546
26.6656 24.1929 18.8546
29.2052 10.9968 19.7524
29.2052 15.3955 19.7524
26.6656 10.9968 18.8546
26.6656 15.3955 18.8546
29.2052 2.19935 19.7524
29.2052 6.59805 19.7524
26.6656 2.19935 18.8546
26.6656 6.59805 18.8546
25.3958 21.9935 19.7524
22.8562 21.9935 18.8546
21.5865 24.1929 19.7524
19.0469 24.1929 18.8546
25.3958 13.1961 19.7524
22.8562 13.1961 18.8546
25.3958 17.5948 19.7524
21.5865 15.3955 19.7524
21.5865 19.7942 19.7524
22.8562 17.5948 18.8546
19.0469 15.3955 18.8546
19.0469 19.7942 18.8546
25.3958 4.3987 19.7524
22.8562 4.3987 18.8546
25.3958 8.7974 19.7524
21.5865 6.59805 19.7524
21.5865 10.9968 19.7524
22.8562 8.7974 18.8546
19.0469 6.59805 18.8546
19.0469 10.9968 18.8546
25.3958 5.02091e-15 19.7524
21.5865 2.19935 19.7524
22.8562 5.07079e-15 18.8546
19.0469 2.19935 18.8546
17.7771 17.5948 19.7524
15.2375 17.5948 18.8546
17.7771 21.9935 19.7524
13.9677 19.7942 19.7524
13.9677 24.1929 19.7524
15.2375 21.9935 18.8546
11.4281 19.7942 18.8546
11.4281 24.1929 18.8546
17.7771 8.7974 19.7524
15.2375 8.7974 18.8546
17.7771 13.1961 19.7524
13.9677 10.9968 19.7524
13.9677 15.3955 19.7524
15.2375 13.1961 18.8546
11.4281 10.9968 18.8546
11.4281 15.3955 18.8546
17.7771 4.91516e-15 19.7524
15.2375 4.96309e-15 18.8546
17.7771 4.3987 19.7524
13.9677 2.19935 19.7524
13.9677 6.59805 19.7524
15.2375 4.3987 18.8546
11.4281 2.19935 18.8546
11.4281 6.59805 18.8546
10.1583 21.9935 19.7524
7.61875 21.9935 18.8546
6.34896 24.1929 19.7524
3.80937 24.1929 18.8546
10.1583 13.1961 19.7524
7.61875 13.1961 18.8546
10.1583 17.5948 19.7524
6.34896 15.3955 19.7524
6.34896 19.7942 19.7524
7.61875 17.5948 18.8546
3.80937 15.3955 18.8546
3.80937 19.7942 18.8546
10.1583 4.3987 19.7524
7.61875 4.3987 18.8546
10.1583 8.7974 19.7524
6.34896 6.59805 19.7524
6.34896 10.9968 19.7524
7.61875 8.7974 18.8546
3.80937 6.59805 18.8546
3.80937 10.9968 18.8546
10.1583 5.16542e-15 19.7524
6.34896 2.19935 19.7524
7.61875 5.51106e-15 18.8546
3.80937 2.19935 18.8546
2.53958 17.5948 19.7524
30.475 17.5948 18.8546
2.53958 21.9935 19.7524
30.475 21.9935 18.8546
2.53958 8.7974 19.7524
30.475 8.7974 18.8546
2.53958 13.1961 19.7524
30.475 13.1961 18.8546
2.53958 4.92212e-15 19.7524
30.475 4.74817e-15 18.8546
2.53958 4.3987 19.7524
30.475 4.3987 18.8546
30.475 5.16174e-15 23.3437
2.53958 4.89964e-15 22.4459
30.475 8.7974 23.3437
2.53958 8.7974 22.4459
30.475 4.3987 23.3437
3.80937 6.59805 23.3437
3.80937 2.19935 23.3437
2.53958 4.3987 22.4459
6.34896 6.59805 22.4459
6.34896 2.19935 22.4459
30.475 17.5948 23.3437
2.53958 17.5948 22.4459
30.475 13.1961 23.3437
3.80937 15.3955 23.3437
3.80937 10.9968 23.3437
2.53958 13.1961 22.4459
6.34896 15.3955 22.4459
6.34896 10.9968 22.4459
30.475 21.9935 23.3437
3.80937 24.1929 23.3437
3.80937 19.7942 23.3437
2.53958 21.9935 22.4459
6.34896 24.1929 22.4459
6.34896 19.7942 22.4459
7.61875 4.3987 23.3437
10.1583 4.3987 22.4459
7.61875 5.20304e-15 23.3437
11.4281 2.19935 23.3437
10.1583 5.26404e-15 22.4459
13.9677 2.19935 22.4459
7.61875 13.1961 23.3437
10.1583 13.1961 22.4459
7.61875 8.7974 23.3437
11.4281 10.9968 23.3437
11.4281 6.59805 23.3437
10.1583 8.7974 22.4459
13.9677 10.9968 22.4459
13.9677 6.59805 22.4459
7.61875 21.9935 23.3437
10.1583 21.9935 22.4459
7.61875 17.5948 23.3437
11.4281 19.7942 23.3437
11.4281 15.3955 23.3437
10.1583 17.5948 22.4459
13.9677 19.7942 22.4459
13.9677 15.3955 22.4459
11.4281 24.1929 23.3437
13.9677 24.1929 22.4459
15.2375 5.03554e-15 23.3437
17.7771 4.87868e-15 22.4459
15.2375 8.7974 23.3437
17.7771 8.7974 22.4459
15.2375 4.3987 23.3437
19.0469 6.59805 23.3437
19.0469 2.19935 23.3437
17.7771 4.3987 22.4459
21.5865 6.59805 22.4459
21.5865 2.19935 22.4459
15.2375 17.5948 23.3437
17.7771 17.5948 22.4459
15.2375 13.1961 23.3437
19.0469 15.3955 23.3437
19.0469 10.9968 23.3437
17.7771 13.1961 22.4459
21.5865 15.3955 22.4459
21.5865 10.9968 22.4459
15.2375 21.9935 23.3437
19.0469 24.1929 23.3437
19.0469 19.7942 23.3437
17.7771 21.9935 22.4459
21.5865 24.1929 22.4459
21.5865 19.7942 22.4459
22.8562 4.3987 23.3437
25.3958 4.3987 22.4459
22.8562 5.34246e-15 23.3437
26.6656 2.19935 23.3437
25.3958 4.78782e-15 22.4459
29.2052 2.19935 22.4459
22.8562 13.1961 23.3437
25.3958 13.1961 22.4459
22.8562 8.7974 23.3437
26.6656 10.9968 23.3437
26.6656 6.59805 23.3437
25.3958 8.7974 22.4459
29.2052 10.9968 22.4459
29.2052 6.59805 22.4459
22.8562 21.9935 23.3437
25.3958 21.9935 22.4459
22.8562 17.5948 23.3437
26.6656 19.7942 23.3437
26.6656 15.3955 23.3437
25.3958 17.5948 22.4459
29.2052 19.7942 22.4459
29.2052 15.3955 22.4459
26.6656 24.1929 23.3437
29.2052 24.1929 22.4459
29.2052 19.7942 26.9351
29.2052 24.1929 26.9351
26.6656 19.7942 26.0373
26.6656 24.1929 26.0373
29.2052 10.9968 26.9351
29.2052 15.3955 26.9351
26.6656 10.9968 26.0373
26.6656 15.3955 26.0373
29.2052 2.19935 26.9351
29.2052 6.59805 26.9351
26.6656 2.19935 26.0373
26.6656 6.59805 26.0373
25.3958 21.9935 26.9351
22.8562 21.9935 26.0373
21.5865 24.1929 26.9351
19.0469 24.1929 26.0373
25.3958 13.1961 26.9351
22.8562 13.1961 26.0373
25.3958 17.5948 26.9351
21.5865 15.3955 26.9351
21.5865 19.7942 26.9351
22.8562 17.5948 26.0373
19.0469 15.3955 26.0373
19.0469 19.7942 26.0373
25.3958 4.3987 26.9351
22.8562 4.3987 26.0373
25.3958 8.7974 26.9351
21.5865 6.59805 26.9351
21.5865 10.9968 26.9351
22.8562 8.7974 26.0373
19.0469 6.59805 26.0373
19.0469 10.9968 26.0373
25.3958 4.81656e-15 26.9351
21.5865 2.19935 26.9351
22.8562 4.78661e-15 26.0373
19.0469 2.19935 26.0373
17.7771 17.5948 26.9351
15.2375 17.5948 26.0373
17.7771 21.9935 26.9351
13.9677 19.7942 26.9351
13.9677 24.1929 26.9351
15.2375 21.9935 26.0373
11.4281 19.7942 26.0373
11.4281 24.1929 26.0373
17.7771 8.7974 26.9351
15.2375 8.7974 26.0373
17.7771 13.1961 26.9351
13.9677 10.9968 26.9351
13.9677 15.3955 26.9351
15.2375 13.1961 26.0373
11.4281 10.9968 26.0373
11.4281 15.3955 26.0373
17.7771 5.6307e-15 26.9351
15.2375 5.49468e-15 26.0373
17.7771 4.3987 26.9351
13.9677 2.19935 26.9351
13.9677 6.59805 26.9351
15.2375 4.3987 26.0373
11.4281 2.19935 26.0373
11.4281 6.59805 26.0373
10.1583 21.9935 26.9351
7.61875 21.9935 26.0373
6.34896 24.1929 26.9351
3.80937 24.1929 26.0373
10.1583 13.1961 26.9351
7.61875 13.1961 26.0373
10.1583 17.5948 26.9351
6.34896 15.3955 26.9351
6.34896 19.7942 26.9351
7.61875 17.5948 26.0373
3.80937 15.3955 26.0373
3.80937 19.7942 26.0373
10.1583 4.3987 26.9351
7.61875 4.3987 26.0373
10.1583 8.7974 26.9351
6.34896 6.59805 26.9351
6.34896 10.9968 26.9351
7.61875 8.7974 26.0373
3.80937 6.59805 26.0373
3.80937 10.9968 26.0373
10.1583 4.95302e-15 26.9351
6.34896 2.19935 26.9351
7.61875 5.45759e-15 26.0373
3.80937 2.19935 26.0373
2.53958 17.5948 26.9351
30.475 17.5948 26.0373
2.53958 21.9935 26.9351
30.475 21.9935 26.0373
2.53958 8.7974 26.9351
30.475 8.7974 26.0373
2.53958 13.1961 26.9351
30.475 13.1961 26.0373
2.53958 4.79106e-15 26.9351
30.475 4.36579e-15 26.0373
2.53958 4.3987 26.9351
30.475 4.3987 26.0373
30.475 4.94586e-15 30.5264
2.53958 4.74095e-15 29.6286
30.475 8.7974 30.5264
2.53958 8.7974 29.6286
30.475 4.3987 30.5264
3.80937 6.59805 30.5264
3.80937 2.19935 30.5264
2.53958 4.3987 29.6286
6.34896 6.59805 29.6286
6.34896 2.19935 29.6286
30.475 17.5948 30.5264
2.53958 17.5948 29.6286
30.475 13.1961 30.5264
3.80937 15.3955 30.5264
3.80937 10.9968 30.5264
2.53958 13.1961 29.6286
6.34896 15.3955 29.6286
6.34896 10.9968 29.6286
30.475 21.9935 30.5264
3.80937 24.1929 30.5264
3.80937 19.7942 30.5264
2.53958 21.9935 29.6286
6.34896 24.1929 29.6286
6.34896 19.7942 29.6286
7.61875 4.3987 30.5264
10.1583 4.3987 29.6286
7.61875 5.54096e-15 30.5264
11.4281 2.19935 30.5264
10.1583 5.06181e-15 29.6286
13.9677 2.19935 29.6286
7.61875 13.1961 30.5264
10.1583 13.1961 29.6286
7.61875 8.7974 30.5264
11.4281 10.9968 30.5264
11.4281 6.59805 30.5264
10.1583 8.7974 29.6286
13.9677 10.9968 29.6286
13.9677 6.59805 29.6286
7.61875 21.9935 30.5264
10.1583 21.9935 29.6286
7.61875 17.5948 30.5264
11.4281 19.7942 30.5264
11.4281 15.3955 30.5264
10.1583 17.5948 29.6286
13.9677 19.7942 29.6286
13.9677 15.3955 29.6286
11.4281 24.1929 30.5264
13.9677 24.1929 29.6286
15.2375 5.05801e-15 30.5264
17.7771 4.78575e-15 29.6286
15.2375 8.7974 30.5264
17.7771 8.7974 29.6286
15.2375 4.3987 30.5264
19.0469 6.59805 30.5264
19.0469 2.19935 30.5264
17.7771 4.3987 29.6286
21.5865 6.59805 29.6286
21.5865 2.19935 29.6286
15.2375 17.5948 30.5264
17.7771 17.5948 29.6286
15.2375 13.1961 30.5264
19.0469 15.3955 30.5264
19.0469 10.9968 30.5264
17.7771 13.1961 29.6286
21.5865 15.3955 29.6286
21.5865 10.9968 29.6286
15.2375 21.9935 30.5264
19.0469 24.1929 30.5264
19.0469 19.7942 30.5264
17.7771 21.9935 29.6286
21.5865 24.1929 29.6286
21.5865 19.7942 29.6286
22.8562 4.3987 30.5264
25.3958 4.3987 29.6286
22.8562 4.82008e-15 30.5264
26.6656 2.19935 30.5264
25.3958 4.74981e-15 29.6286
29.2052 2.19935 29.6286
22.8562 13.1961 30.5264
25.3958 13.1961 29.6286
22.8562 8.7974 30.5264
26.6656 10.9968 30.5264
26.6656 6.59805 30.5264
25.3958 8.7974 29.6286
29.2052 10.9968 29.6286
29.2052 6.59805 29.6286
22.8562 21.9935 30.5264
25.3958 21.9935 29.6286
22.8562 17.5948 30.5264
26.6656 19.7942 30.5264
26.6656 15.3955 30.5264
25.3958 17.5948 29.6286
29.2052 19.7942 29.6286
29.2052 15.3955 29.6286
26.6656 24.1929 30.5264
29.2052 24.1929 29.6286
29.2052 19.7942 34.1177
29.2052 24.1929 34.1177
26.6656 19.7942 33.22
26.6656 24.1929 33.22
29.2052 10.9968 34.1177
29.2052 15.3955 34.1177
26.6656 10.9968 33.22
26.6656 15.3955 33.22
29.2052 2.19935 34.1177
29.2052 6.59805 34.1177
26.6656 2.19935 33.22
26.6656 6.59805 33.22
25.3958 21.9935 34.1177
22.8562 21.9935 33.22
21.5865 24.1929 34.1177
19.0469 24.1929 33.22
25.3958 13.1961 34.1177
22.8562 13.1961 33.22
25.3958 17.5948 34.1177
21.5865 15.3955 34.1177
21.5865 19.7942 34.1177
22.8562 17.5948 33.22
19.0469 15.3955 33.22
19.0469 19.7942 33.22
25.3958 4.3987 34.1177
22.8562 4.3987 33.22
25.3958 8.7974 34.1177
21.5865 6.59805 34.1177
21.5865 10.9968 34.1177
22.8562 8.7974 33.22
19.0469 6.59805 33.22
19.0469 10.9968 33.22
25.3958 4.82726e-15 34.1177
21.5865 2.19935 34.1177
22.8562 4.82503e-15 33.22
19.0469 2.19935 33.22
17.7771 17.5948 34.1177
15.2375 17.5948 33.22
17.7771 21.9935 34.1177
13.9677 19.7942 34.1177
13.9677 24.1929 34.1177
15.2375 21.9935 33.22
11.4281 19.7942 33.22
11.4281 24.1929 33.22
17.7771 8.7974 34.1177
15.2375 8.7974 33.22
17.7771 13.1961 34.1177
13.9677 10.9968 34.1177
13.9677 15.3955 34.1177
15.2375 13.1961 33.22
11.4281 10.9968 33.22
11.4281 15.3955 33.22
17.7771 5.33196e-15 34.1177
15.2375 5.42696e-15 33.22
17.7771 4.3987 34.1177
13.9677 2.19935 34.1177
13.9677 6.59805 34.1177
15.2375 4.3987 33.22
11.4281 2.19935 33.22
11.4281 6.59805 33.22
10.1583 21.9935 34.1177
7.61875 21.9935 33.22
6.34896 24.1929 34.1177
3.80937 24.1929 33.22
10.1583 13.1961 34.1177
7.61875 13.1961 33.22
10.1583 17.5948 34.1177
6.34896 15.3955 34.1177
6.34896 19.7942 34.1177
7.61875 17.5948 33.22
3.80937 15.3955 33.22
3.80937 19.7942 33.22
10.1583 4.3987 34.1177
7.61875 4.3987 33.22
10.1583 8.7974 34.1177
6.34896 6.59805 34.1177
6.34896 10.9968 34.1177
7.61875 8.7974 33.22
3.80937 6.59805 33.22
3.80937 10.9968 33.22
10.1583 5.33269e-15 34.1177
6.34896 2.19935 34.1177
7.61875 5.4554e-15 33.22
3.80937 2.19935 33.22
2.53958 17.5948 34.1177
30.475 17.5948 33.22
2.53958 21.9935 34.1177
30.475 21.9935 33.22
2.53958 8.7974 34.1177
30.475 8.7974 33.22
2.53958 13.1961 34.1177
30.475 13.1961 33.22
2.53958 4.92628e-15 34.1177
30.475 4.3733e-15 33.22
2.53958 4.3987 34.1177
30.475 4.3987 33.22
30.475 4.67218e-15 37.7091
2.53958 4.96405e-15 36.8113
30.475 8.7974 37.7091
2.53958 8.7974 36.8113
30.475 4.3987 37.7091
3.80937 6.59805 37.7091
3.80937 2.19935 37.7091
2.53958 4.3987 36.8113
6.34896 6.59805 36.8113
6.34896 2.19935 36.8113
30.475 17.5948 37.7091
2.53958 17.5948 36.8113
30.475 13.1961 37.7091
3.80937 15.3955 37.7091
3.80937 10.9968 37.7091
2.53958 13.1961 36.8113
6.34896 15.3955 36.8113
6.34896 10.9968 36.8113
30.475 21.9935 37.7091
3.80937 24.1929 37.7091
3.80937 19.7942 37.7091
2.53958 21.9935 36.8113
6.34896 24.1929 36.8113
6.34896 19.7942 36.8113
7.61875 4.3987 37.7091
10.1583 4.3987 36.8113
7.61875 5.52078e-15 37.7091
11.4281 2.19935 37.7091
10.1583 5.30363e-15 36.8113
13.9677 2.19935 36.8113
7.61875 13.1961 37.7091
10.1583 13.1961 36.8113
7.61875 8.7974 37.7091
11.4281 10.9968 37.7091
11.4281 6.59805 37.7091
10.1583 8.7974 36.8113
13.9677 10.9968 36.8113
13.9677 6.59805 36.8113
7.61875 21.9935 37.7091
10.1583 21.9935 36.8113
7.61875 17.5948 37.7091
11.4281 19.7942 37.7091
11.4281 15.3955 37.7091
10.1583 17.5948 36.8113
13.9677 19.7942 36.8113
13.9677 15.3955 36.8113
11.4281 24.1929 37.7091
13.9677 24.1929 36.8113
15.2375 5.26815e-15 37.7091
17.7771 4.8017e-15 36.8113
15.2375 8.7974 37.7091
17.7771 8.7974 36.8113
15.2375 4.3987 37.7091
19.0469 6.59805 37.7091
19.0469 2.19935 37.7091
17.7771 4.3987 36.8113
21.5865 6.59805 36.8113
21.5865 2.19935 36.8113
15.2375 17.5948 37.7091
17.7771 17.5948 36.8113
15.2375 13.1961 37.7091
19.0469 15.3955 37.7091
19.0469 10.9968 37.7091
17.7771 13.1961 36.8113
21.5865 15.3955 36.8113
21.5865 10.9968 36.8113
15.2375 21.9935 37.7091
19.0469 24.1929 37.7091
19.0469 19.7942 37.7091
17.7771 21.9935 36.8113
21.5865 24.1929 36.8113
21.5865 19.7942 36.8113
22.8562 4.3987 37.7091
25.3958 4.3987 36.8113
22.8562 5.00393e-15 37.7091
26.6656 2.19935 37.7091
25.3958 5.19817e-15 36.8113
29.2052 2.19935 36.8113
22.8562 13.1961 37.7091
25.3958 13.1961 36.8113
22.8562 8.7974 37.7091
26.6656 10.9968 37.7091
26.6656 6.59805 37.7091
25.3958 8.7974 36.8113
29.2052 10.9968 36.8113
29.2052 6.59805 36.8113
22.8562 21.9935 37.7091
25.3958 21.9935 36.8113
22.8562 17.5948 37.7091
26.6656 19.7942 37.7091
26.6656 15.3955 37.7091
25.3958 17.5948 36.8113
29.2052 19.7942 36.8113
29.2052 15.3955 36.8113
26.6656 24.1929 37.7091
29.2052 24.1929 36.8113
29.2052 19.7942 41.3004
29.2052 24.1929 41.3004
26.6656 19.7942 40.4027
26.6656 24.1929 40.4027
29.2052 10.9968 41.3004
29.2052 15.3955 41.3004
26.6656 10.9968 40.4027
26.6656 15.3955 40.4027
29.2052 2.19935 41.3004
29.2052 6.59805 41.3004
26.6656 2.19935 40.4027
26.6656 6.59805 40.4027
25.3958 21.9935 41.3004
22.8562 21.9935 40.4027
21.5865 24.1929 41.3004
19.0469 24.1929 40.4027
25.3958 13.1961 41.3004
22.8562 13.1961 40.4027
25.3958 17.5948 41.3004
21.5865 15.3955 41.3004
21.5865 19.7942 41.3004
22.8562 17.5948 40.4027
19.0469 15.3955 40.4027
19.0469 19.7942 40.4027
25.3958 4.3987 41.3004
22.8562 4.3987 40.4027
25.3958 8.7974 41.3004
21.5865 6.59805 41.3004
21.5865 10.9968 41.3004
22.8562 8.7974 40.4027
19.0469 6.59805 40.4027
19.0469 10.9968 40.4027
25.3958 4.77636e-15 41.3004
21.5865 2.19935 41.3004
22.8562 5.40215e-15 40.4027
19.0469 2.19935 40.4027
17.7771 17.5948 41.3004
15.2375 17.5948 40.4027
17.7771 21.9935 41.3004
13.9677 19.7942 41.3004
13.9677 24.1929 41.3004
15.2375 21.9935 40.4027
11.4281 19.7942 40.4027
11.4281 24.1929 40.4027
17.7771 8.7974 41.3004
15.2375 8.7974 40.4027
17.7771 13.1961 41.3004
13.9677 10.9968 41.3004
13.9677 15.3955 41.3004
15.2375 13.1961 40.4027
11.4281 10.9968 40.4027
11.4281 15.3955 40.4027
17.7771 4.96884e-15 41.3004
15.2375 5.26294e-15 40.4027
17.7771 4.3987 41.3004
13.9677 2.19935 41.3004
13.9677 6.59805 41.3004
15.2375 4.3987 40.4027
11.4281 2.19935 40.4027
11.4281 6.59805 40.4027
10.1583 21.9935 41.3004
7.61875 21.9935 40.4027
6.34896 24.1929 41.3004
3.80937 24.1929 40.4027
10.1583 13.1961 41.3004
7.61875 13.1961 40.4027
10.1583 17.5948 41.3004
6.34896 15.3955 41.3004
6.34896 19.7942 41.3004
7.61875 17.5948 40.4027
3.80937 15.3955 40.4027
3.80937 19.7942 40.4027
10.1583 4.3987 41.3004
7.61875 4.3987 40.4027
10.1583 8.7974 41.3004
6.34896 6.59805 41.3004
6.34896 10.9968 41.3004
7.61875 8.7974 40.4027
3.80937 6.59805 40.4027
3.80937 10.9968 40.4027
10.1583 5.33447e-15 41.3004
6.34896 2.19935 41.3004
7.61875 5.05784e-15 40.4027
3.80937 2.19935 40.4027
2.53958 17.5948 41.3004
30.475 17.5948 40.4027
2.53958 21.9935 41.3004
30.475 21.9935 40.4027
2.53958 8.7974 41.3004
30.475 8.7974 40.4027
2.53958 13.1961 41.3004
30.475 13.1961 40.4027
2.53958 4.75434e-15 41.3004
30.475 4.53896e-15 40.4027
2.53958 4.3987 41.3004
30.475 4.3987 40.4027
30.475 4.45293e-15 44.8918
2.53958 5.36942e-15 43.994
30.475 8.7974 44.8918
2.53958 8.7974 43.994
30.475 4.3987 44.8918
3.80937 6.59805 44.8918
3.80937 2.19935 44.8918
2.53958 4.3987 43.994
6.34896 6.59805 43.994
6.34896 2.19935 43.994
30.475 17.5948 44.8918
2.53958 17.5948 43.994
30.475 13.1961 44.8918
3.80937 15.3955 44.8918
3.80937 10.9968 44.8918
2.53958 13.1961 43.994
6.34896 15.3955 43.994
6.34896 10.9968 43.994
30.475 21.9935 44.8918
3.80937 24.1929 44.8918
3.80937 19.7942 44.8918
2.53958 21.9935 43.994
6.34896 24.1929 43.994
6.34896 19.7942 43.994
7.61875 4.3987 44.8918
10.1583 4.3987 43.994
7.61875 5.14308e-15 44.8918
11.4281 2.19935 44.8918
10.1583 6.07293e-15 43.994
13.9677 2.19935 43.994
7.61875 13.1961 44.8918
10.1583 13.1961 43.994
7.61875 8.7974 44.8918
11.4281 10.9968 44.8918
11.4281 6.59805 44.8918
10.1583 8.7974 43.994
13.9677 10.9968 43.994
13.9677 6.59805 43.994
7.61875 21.9935 44.8918
10.1583 21.9935 43.994
7.61875 17.5948 44.8918
11.4281 19.7942 44.8918
11.4281 15.3955 44.8918
10.1583 17.5948 43.994
13.9677 19.7942 43.994
13.9677 15.3955 43.994
11.4281 24.1929 44.8918
13.9677 24.1929 43.994
15.2375 5.15513e-15 44.8918
17.7771 5.83647e-15 43.994
15.2375 8.7974 44.8918
17.7771 8.7974 43.994
15.2375 4.3987 44.8918
19.0469 6.59805 44.8918
19.0469 2.19935 44.8918
17.7771 4.3987 43.994
21.5865 6.59805 43.994
21.5865 2.19935 43.994
15.2375 17.5948 44.8918
17.7771 17.5948 43.994
15.2375 13.1961 44.8918
19.0469 15.3955 44.8918
19.0469 10.9968 44.8918
17.7771 13.1961 43.994
21.5865 15.3955 43.994
21.5865 10.9968 43.994
15.2375 21.9935 44.8918
19.0469 24.1929 44.8918
19.0469 19.7942 44.8918
17.7771 21.9935 43.994
21.5865 24.1929 43.994
21.5865 19.7942 43.994
22.8562 4.3987 44.8918
25.3958 4.3987 43.994
22.8562 5.18296e-15 44.8918
26.6656 2.19935 44.8918
25.3958 5.16775e-15 43.994
29.2052 2.19935 43.994
22.8562 13.1961 44.8918
25.3958 13.1961 43.994
22.8562 8.7974 44.8918
26.6656 10.9968 44.8918
26.6656 6.59805 44.8918
25.3958 8.7974 43.994
29.2052 10.9968 43.994
29.2052 6.59805 43.994
22.8562 21.9935 44.8918
25.3958 21.9935 43.994
22.8562 17.5948 44.8918
26.6656 19.7942 44.8918
26.6656 15.3955 44.8918
25.3958 17.5948 43.994
29.2052 19.7942 43.994
29.2052 15.3955 43.994
26.6656 24.1929 44.8918
29.2052 24.1929 43.994
29.2052 19.7942 48.4831
29.2052 24.1929 48.4831
26.6656 19.7942 47.5853
26.6656 24.1929 47.5853
29.2052 10.9968 48.4831
29.2052 15.3955 48.4831
26.6656 10.9968 47.5853
26.6656 15.3955 47.5853
29.2052 2.19935 48.4831
29.2052 6.59805 48.4831
26.6656 2.19935 47.5853
26.6656 6.59805 47.5853
25.3958 21.9935 48.4831
22.8562 21.9935 47.5853
21.5865 24.1929 48.4831
19.0469 24.1929 47.5853
25.3958 13.1961 48.4831
22.8562 13.1961 47.5853
25.3958 17.5948 48.4831
21.5865 15.3955 48.4831
21.5865 19.7942 48.4831
22.8562 17.5948 47.5853
19.0469 15.3955 47.5853
19.0469 19.7942 47.5853
25.3958 4.3987 48.4831
22.8562 4.3987 47.5853
25.3958 8.7974 48.4831
21.5865 6.59805 48.4831
21.5865 10.9968 48.4831
22.8562 8.7974 47.5853
19.0469 6.59805 47.5853
19.0469 10.9968 47.5853
25.3958 4.99109e-15 48.4831
21.5865 2.19935 48.4831
22.8562 5.1952e-15 47.5853
19.0469 2.19935 47.5853
17.7771 17.5948 48.4831
15.2375 17.5948 47.5853
17.7771 21.9935 48.4831
13.9677 19.7942 48.4831
13.9677 24.1929 48.4831
15.2375 21.9935 47.5853
11.4281 19.7942 47.5853
11.4281 24.1929 47.5853
17.7771 8.7974 48.4831
15.2375 8.7974 47.5853
17.7771 13.1961 48.4831
13.9677 10.9968 48.4831
13.9677 15.3955 48.4831
15.2375 13.1961 47.5853
11.4281 10.9968 47.5853
11.4281 15.3955 47.5853
17.7771 4.6867e-15 48.4831
15.2375 4.76699e-15 47.5853
17.7771 4.3987 48.4831
13.9677 2.19935 48.4831
13.9677 6.59805 48.4831
15.2375 4.3987 47.5853
11.4281 2.19935 47.5853
11.4281 6.59805 47.5853
10.1583 21.9935 48.4831
7.61875 21.9935 47.5853
6.34896 24.1929 48.4831
3.80937 24.1929 47.5853
10.1583 13.1961 48.4831
7.61875 13.1961 47.5853
10.1583 17.5948 48.4831
6.34896 15.3955 48.4831
6.34896 19.7942 48.4831
7.61875 17.5948 47.5853
3.80937 15.3955 47.5853
3.80937 19.7942 47.5853
10.1583 4.3987 48.4831
7.61875 4.3987 47.5853
10.1583 8.7974 48.4831
6.34896 6.59805 48.4831
6.34896 10.9968 48.4831
7.61875 8.7974 47.5853
3.80937 6.59805 47.5853
3.80937 10.9968 47.5853
10.1583 4.97251e-15 48.4831
6.34896 2.19935 48.4831
7.61875 4.81429e-15 47.5853
3.80937 2.19935 47.5853
2.53958 17.5948 48.4831
30.475 17.5948 47.5853
2.53958 21.9935 48.4831
30.475 21.9935 47.5853
2.53958 8.7974 48.4831
30.475 8.7974 47.5853
2.53958 13.1961 48.4831
30.475 13.1961 47.5853
2.53958 4.29567e-15 48.4831
30.475 4.87664e-15 47.5853
2.53958 4.3987 48.4831
30.475 4.3987 47.5853
30.475 4.89375e-15 52.0745
2.53958 4.88341e-15 51.1767
30.475 8.7974 52.0745
2.53958 8.7974 51.1767
30.475 4.3987 52.0745
3.80937 6.59805 52.0745
3.80937 2.19935 52.0745
2.53958 4.3987 51.1767
6.34896 6.59805 51.1767
6.34896 2.19935 51.1767
30.475 17.5948 52.0745
2.53958 17.5948 51.1767
30.475 13.1961 52.0745
3.80937 15.3955 52.0745
3.80937 10.9968 52.0745
2.53958 13.1961 51.1767
6.34896 15.3955 51.1767
6.34896 10.9968 51.1767
30.475 21.9935 52.0745
3.80937 24.1929 52.0745
3.80937 19.7942 52.0745
2.53958 21.9935 51.1767
6.34896 24.1929 51.1767
6.34896 19.7942 51.1767
7.61875 4.3987 52.0745
10.1583 4.3987 51.1767
7.61875 4.97206e-15 52.0745
11.4281 2.19935 52.0745
10.1583 5.10862e-15 51.1767
13.9677 2.19935 51.1767
7.61875 13.1961 52.0745
10.1583 13.1961 51.1767
7.61875 8.7974 52.0745
11.4281 10.9968 52.0745
11.4281 6.59805 52.0745
10.1583 8.7974 51.1767
13.9677 10.9968 51.1767
13.9677 6.59805 51.1767
7.61875 21.9935 52.0745
10.1583 21.9935 51.1767
7.61875 17.5948 52.0745
11.4281 19.7942 52.0745
11.4281 15.3955 52.0745
10.1583 17.5948 51.1767
13.9677 19.7942 51.1767
13.9677 15.3955 51.1767
11.4281 24.1929 52.0745
13.9677 24.1929 51.1767
15.2375 5.00151e-15 52.0745
17.7771 4.96852e-15 51.1767
15.2375 8.7974 52.0745
17.7771 8.7974 51.1767
15.2375 4.3987 52.0745
19.0469 6.59805 52.0745
19.0469 2.19935 52.0745
17.7771 4.3987 51.1767
21.5865 6.59805 51.1767
21.5865 2.19935 51.1767
15.2375 17.5948 52.0745
17.7771 17.5948 51.1767
15.2375 13.1961 52.0745
19.0469 15.3955 52.0745
19.0469 10.9968 52.0745
17.7771 13.1961 51.1767
21.5865 15.3955 51.1767
21.5865 10.9968 51.1767
15.2375 21.9935 52.0745
19.0469 24.1929 52.0745
19.0469 19.7942 52.0745
17.7771 21.9935 51.1767
21.5865 24.1929 51.1767
21.5865 19.7942 51.1767
22.8562 4.3987 52.0745
25.3958 4.3987 51.1767
22.8562 5.04425e-15 52.0745
26.6656 2.19935 52.0745
25.3958 5.20855e-15 51.1767
29.2052 2.19935 51.1767
22.8562 13.1961 52.0745
25.3958 13.1961 51.1767
22.8562 8.7974 52.0745
26.6656 10.9968 52.0745
26.6656 6.59805 52.0745
25.3958 8.7974 51.1767
29.2052 10.9968 51.1767
29.2052 6.59805 51.1767
22.8562 21.9935 52.0745
25.3958 21.9935 51.1767
22.8562 17.5948 52.0745
26.6656 19.7942 52.0745
26.6656 15.3955 52.0745
25.3958 17.5948 51.1767
29.2052 19.7942 51.1767
29.2052 15.3955 51.1767
26.6656 24.1929 52.0745
29.2052 24.1929 51.1767
29.2052 19.7942 55.6658
29.2052 24.1929 55.6658
26.6656 19.7942 54.768
26.6656 24.1929 54.768
29.2052 10.9968 55.6658
29.2052 15.3955 55.6658
26.6656 10.9968 54.768
26.6656 15.3955 54.768
29.2052 2.19935 55.6658
29.2052 6.59805 55.6658
26.6656 2.19935 54.768
26.6656 6.59805 54.768
25.3958 21.9935 55.6658
22.8562 21.9935 54.768
21.5865 24.1929 55.6658
19.0469 24.1929 54.768
25.3958 13.1961 55.6658
22.8562 13.1961 54.768
25.3958 17.5948 55.6658
21.5865 15.3955 55.6658
21.5865 19.7942 55.6658
22.8562 17.5948 54.768
19.0469 15.3955 54.768
19.0469 19.7942 54.768
25.3958 4.3987 55.6658
22.8562 4.3987 54.768
25.3958 8.7974 55.6658
21.5865 6.59805 55.6658
21.5865 10.9968 55.6658
22.8562 8.7974 54.768
19.0469 6.59805 54.768
19.0469 10.9968 54.768
25.3958 4.97259e-15 55.6658
21.5865 2.19935 55.6658
22.8562 4.89422e-15 54.768
19.0469 2.19935 54.768
17.7771 17.5948 55.6658
15.2375 17.5948 54.768
17.7771 21.9935 55.6658
13.9677 19.7942 55.6658
13.9677 24.1929 55.6658
15.2375 21.9935 54.768
11.4281 19.7942 54.768
11.4281 24.1929 54.768
17.7771 8.7974 55.6658
15.2375 8.7974 54.768
17.7771 13.1961 55.6658
13.9677 10.9968 55.6658
13.9677 15.3955 55.6658
15.2375 13.1961 54.768
11.4281 10.9968 54.768
11.4281 15.3955 54.768
17.7771 5.50278e-15 55.6658
15.2375 5.36094e-15 54.768
17.7771 4.3987 55.6658
13.9677 2.19935 55.6658
13.9677 6.59805 55.6658
15.2375 4.3987 54.768
11.4281 2.19935 54.768
11.4281 6.59805 54.768
10.1583 21.9935 55.6658
7.61875 21.9935 54.768
6.34896 24.1929 55.6658
3.80937 24.1929 54.768
10.1583 13.1961 55.6658
7.61875 13.1961 54.768
10.1583 17.5948 55.6658
6.34896 15.3955 55.6658
6.34896 19.7942 55.6658
7.61875 17.5948 54.768
3.80937 15.3955 54.768
3.80937 19.7942 54.768
10.1583 4.3987 55.6658
7.61875 4.3987 54.768
10.1583 8.7974 55.6658
6.34896 6.59805 55.6658
6.34896 10.9968 55.6658
7.61875 8.7974 54.768
3.80937 6.59805 54.768
3.80937 10.9968 54.768
10.1583 5.42611e-15 55.6658
6.34896 2.19935 55.6658
7.61875 5.53039e-15 54.768
3.80937 2.19935 54.768
2.53958 17.5948 55.6658
30.475 17.5948 54.768
2.53958 21.9935 55.6658
30.475 21.9935 54.768
2.53958 8.7974 55.6658
30.475 8.7974 54.768
2.53958 13.1961 55.6658
30.475 13.1961 54.768
2.53958 4.89875e-15 55.6658
30.475 4.36614e-15 54.768
2.53958 4.3987 55.6658
30.475 4.3987 54.768
30.475 4.52312e-15 59.2572
2.53958 4.92968e-15 58.3594
30.475 8.7974 59.2572
2.53958 8.7974 58.3594
30.475 4.3987 59.2572
3.80937 6.59805 59.2572
3.80937 2.19935 59.2572
2.53958 4.3987 58.3594
6.34896 6.59805 58.3594
6.34896 2.19935 58.3594
30.475 17.5948 59.2572
2.53958 17.5948 58.3594
30.475 13.1961 59.2572
3.80937 15.3955 59.2572
3.80937 10.9968 59.2572
2.53958 13.1961 58.3594
6.34896 15.3955 58.3594
6.34896 10.9968 58.3594
30.475 21.9935 59.2572
3.80937 24.1929 59.2572
3.80937 19.7942 59.2572
2.53958 21.9935 58.3594
6.34896 24.1929 58.3594
6.34896 19.7942 58.3594
7.61875 4.3987 59.2572
10.1583 4.3987 58.3594
7.61875 5.17645e-15 59.2572
11.4281 2.19935 59.2572
10.1583 5.25675e-15 58.3594
13.9677 2.19935 58.3594
7.61875 13.1961 59.2572
10.1583 13.1961 58.3594
7.61875 8.7974 59.2572
11.4281 10.9968 59.2572
11.4281 6.59805 59.2572
10.1583 8.7974 58.3594
13.9677 10.9968 58.3594
13.9677 6.59805 58.3594
7.61875 21.9935 59.2572
10.1583 21.9935 58.3594
7.61875 17.5948 59.2572
11.4281 19.7942 59.2572
11.4281 15.3955 59.2572
10.1583 17.5948 58.3594
13.9677 19.7942 58.3594
13.9677 15.3955 58.3594
11.4281 24.1929 59.2572
13.9677 24.1929 58.3594
15.2375 5.28159e-15 59.2572
17.7771 4.97821e-15 58.3594
15.2375 8.7974 59.2572
17.7771 8.7974 58.3594
15.2375 4.3987 59.2572
19.0469 6.59805 59.2572
19.0469 2.19935 59.2572
17.7771 4.3987 58.3594
21.5865 6.59805 58.3594
21.5865 2.19935 58.3594
15.2375 17.5948 59.2572
17.7771 17.5948 58.3594
15.2375 13.1961 59.2572
19.0469 15.3955 59.2572
19.0469 10.9968 59.2572
17.7771 13.1961 58.3594
21.5865 15.3955 58.3594
21.5865 10.9968 58.3594
15.2375 21.9935 59.2572
19.0469 24.1929 59.2572
19.0469 19.7942 59.2572
17.7771 21.9935 58.3594
21.5865 24.1929 58.3594
21.5865 19.7942 58.3594
22.8562 4.3987 59.2572
25.3958 4.3987 58.3594
22.8562 4.98008e-15 59.2572
26.6656 2.19935 59.2572
25.3958 5.2415e-15 58.3594
29.2052 2.19935 58.3594
22.8562 13.1961 59.2572
25.3958 13.1961 58.3594
22.8562 8.7974 59.2572
26.6656 10.9968 59.2572
26.6656 6.59805 59.2572
25.3958 8.7974 58.3594
29.2052 10.9968 58.3594
29.2052 6.59805 58.3594
22.8562 21.9935 59.2572
25.3958 21.9935 58.3594
22.8562 17.5948 59.2572
26.6656 19.7942 59.2572
26.6656 15.3955 59.2572
25.3958 17.5948 58.3594
29.2052 19.7942 58.3594
29.2052 15.3955 58.3594
26.6656 24.1929 59.2572
29.2052 24.1929 58.3594
29.2052 19.7942 62.8485
29.2052 24.1929 62.8485
26.6656 19.7942 61.9507
26.6656 24.1929 61.9507
29.2052 10.9968 62.8485
29.2052 15.3955 62.8485
26.6656 10.9968 61.9507
26.6656 15.3955 61.9507
29.2052 2.19935 62.8485
29.2052 6.59805 62.8485
26.6656 2.19935 61.9507
26.6656 6.59805 61.9507
25.3958 21.9935 62.8485
22.8562 21.9935 61.9507
21.5865 24.1929 62.8485
19.0469 24.1929 61.9507
25.3958 13.1961 62.8485
22.8562 13.1961 61.9507
25.3958 17.5948 62.8485
21.5865 15.3955 62.8485
21.5865 19.7942 62.8485
22.8562 17.5948 61.9507
19.0469 15.3955 61.9507
19.0469 19.7942 61.9507
25.3958 4.3987 62.8485
22.8562 4.3987 61.9507
25.3958 8.7974 62.8485
21.5865 6.59805 62.8485
21.5865 10.9968 62.8485
22.8562 8.7974 61.9507
19.0469 6.59805 61.9507
19.0469 10.9968 61.9507
25.3958 4.93759e-15 62.8485
21.5865 2.19935 62.8485
22.8562 4.92065e-15 61.9507
19.0469 2.19935 61.9507
17.7771 17.5948 62.8485
15.2375 17.5948 61.9507
17.7771 21.9935 62.8485
13.9677 19.7942 62.8485
13.9677 24.1929 62.8485
15.2375 21.9935 61.9507
11.4281 19.7942 61.9507
11.4281 24.1929 61.9507
17.7771 8.7974 62.8485
15.2375 8.7974 61.9507
17.7771 13.1961 62.8485
13.9677 10.9968 62.8485
13.9677 15.3955 62.8485
15.2375 13.1961 61.9507
11.4281 10.9968 61.9507
11.4281 15.3955 61.9507
17.7771 5.42361e-15 62.8485
15.2375 5.36767e-15 61.9507
17.7771 4.3987 62.8485
13.9677 2.19935 62.8485
13.9677 6.59805 62.8485
15.2375 4.3987 61.9507
11.4281 2.19935 61.9507
11.4281 6.59805 61.9507
10.1583 21.9935 62.8485
7.61875 21.9935 61.9507
6.34896 24.1929 62.8485
3.80937 24.1929 61.9507
10.1583 13.1961 62.8485
7.61875 13.1961 61.9507
10.1583 17.5948 62.8485
6.34896 15.3955 62.8485
6.34896 19.7942 62.8485
7.61875 17.5948 61.9507
3.80937 15.3955 61.9507
3.80937 19.7942 61.9507
10.1583 4.3987 62.8485
7.61875 4.3987 61.9507
10.1583 8.7974 62.8485
6.34896 6.59805 62.8485
6.34896 10.9968 62.8485
7.61875 8.7974 61.9507
3.80937 6.59805 61.9507
3.80937 10.9968 61.9507
10.1583 5.27494e-15 62.8485
6.34896 2.19935 62.8485
7.61875 5.47671e-15 61.9507
3.80937 2.19935 61.9507
2.53958 17.5948 62.8485
30.475 17.5948 61.9507
2.53958 21.9935 62.8485
30.475 21.9935 61.9507
2.53958 8.7974 62.8485
30.475 8.7974 61.9507
2.53958 13.1961 62.8485
30.475 13.1961 61.9507
2.53958 4.92755e-15 62.8485
30.475 3.89331e-15 61.9507
2.53958 4.3987 62.8485
30.475 4.3987 61.9507
